# .PCD v.7 - Exported by BlenSor
VERSION .7
FIELDS x y z rgb
SIZE 4 4 4 4
TYPE F F F F
COUNT 1 1 1 1
WIDTH 929
HEIGHT 1
VIEWPOINT 0 0 0 1 0 0 0
POINTS 929
DATA ascii
-1.950711 0.030480 -4.877127 1.880790849211783e-38
-1.950711 0.045720 -4.877126 1.880790849211783e-38
-1.950712 0.060960 -4.877127 1.880790849211783e-38
-1.950711 0.076200 -4.877127 1.880790849211783e-38
-1.950711 0.091440 -4.877127 1.880790849211783e-38
-1.950711 0.106680 -4.877127 1.880790849211783e-38
-1.950711 0.121919 -4.877127 1.880790849211783e-38
-1.950712 0.137159 -4.877127 1.880790849211783e-38
-1.950712 0.152399 -4.877127 1.880790849211783e-38
-1.950711 0.167639 -4.877126 1.880790849211783e-38
-1.950711 0.182879 -4.877126 1.880790849211783e-38
-1.950711 0.198119 -4.877127 1.880790849211783e-38
-1.950711 0.213359 -4.877127 1.880790849211783e-38
-1.950711 0.228599 -4.877126 1.880790849211783e-38
-1.950711 0.243839 -4.877127 1.880790849211783e-38
-1.950712 0.259079 -4.877127 1.880790849211783e-38
-1.950712 0.274319 -4.877127 1.880790849211783e-38
-1.950711 0.289559 -4.877126 1.880790849211783e-38
-1.950711 0.304799 -4.877127 1.880790849211783e-38
-1.950711 0.320039 -4.877127 1.880790849211783e-38
-1.950711 0.335279 -4.877127 1.880790849211783e-38
-1.950711 0.350518 -4.877127 1.880790849211783e-38
-1.950711 0.365758 -4.877126 1.880790849211783e-38
-1.950711 0.380998 -4.877126 1.880790849211783e-38
-1.950712 0.396238 -4.877127 1.880790849211783e-38
-1.950711 0.411478 -4.877126 1.880790849211783e-38
-1.950712 0.426718 -4.877127 1.880790849211783e-38
-1.950711 0.441958 -4.877126 1.880790849211783e-38
-1.950712 0.457198 -4.877127 1.880790849211783e-38
-1.950711 0.472438 -4.877127 1.880790849211783e-38
-1.950711 0.487678 -4.877127 1.880790849211783e-38
-1.950711 0.502918 -4.877127 1.880790849211783e-38
-1.950712 0.518158 -4.877127 1.880790849211783e-38
-1.950712 0.533398 -4.877127 1.880790849211783e-38
-1.950711 0.548638 -4.877126 1.880790849211783e-38
-1.950712 0.563878 -4.877127 1.880790849211783e-38
-1.950711 0.579117 -4.877127 1.880790849211783e-38
-1.950711 0.594357 -4.877127 1.880790849211783e-38
-1.950712 0.609597 -4.877127 1.880790849211783e-38
-1.950711 0.624837 -4.877126 1.880790849211783e-38
-1.950712 0.640077 -4.877127 1.880790849211783e-38
-1.950711 0.655317 -4.877127 1.880790849211783e-38
-1.950711 0.670557 -4.877126 1.880790849211783e-38
-1.950712 0.685797 -4.877127 1.880790849211783e-38
-1.950711 0.701037 -4.877127 1.880790849211783e-38
-1.950711 0.716277 -4.877126 1.880790849211783e-38
-1.950712 0.731517 -4.877127 1.880790849211783e-38
-1.950711 0.746757 -4.877127 1.880790849211783e-38
-1.950711 0.761997 -4.877126 1.880790849211783e-38
-1.950712 0.777237 -4.877127 1.880790849211783e-38
-1.950711 0.792477 -4.877126 1.880790849211783e-38
-1.950711 0.807716 -4.877126 1.880790849211783e-38
-1.950711 0.822956 -4.877127 1.880790849211783e-38
-1.950711 0.838196 -4.877127 1.880790849211783e-38
-1.950711 0.853436 -4.877126 1.880790849211783e-38
-1.950712 0.868676 -4.877127 1.880790849211783e-38
-1.950711 0.883916 -4.877127 1.880790849211783e-38
-1.950711 0.899156 -4.877127 1.880790849211783e-38
-1.950711 0.914396 -4.877126 1.880790849211783e-38
-1.950712 0.929636 -4.877127 1.880790849211783e-38
-1.950712 0.944876 -4.877127 1.880790849211783e-38
-1.950711 0.960116 -4.877127 1.880790849211783e-38
-1.950712 0.975356 -4.877127 1.880790849211783e-38
-1.950712 0.990596 -4.877127 1.880790849211783e-38
-1.950711 1.005836 -4.877127 1.880790849211783e-38
-1.950711 1.021076 -4.877127 1.880790849211783e-38
-1.950712 1.036316 -4.877127 1.880790849211783e-38
-1.950711 1.051555 -4.877126 1.880790849211783e-38
-1.950711 1.066795 -4.877126 1.880790849211783e-38
-1.950711 1.082035 -4.877127 1.880790849211783e-38
-1.950712 1.097275 -4.877127 1.880790849211783e-38
-1.950711 1.112515 -4.877127 1.880790849211783e-38
-1.950711 1.127755 -4.877127 1.880790849211783e-38
-1.950712 1.142995 -4.877127 1.880790849211783e-38
-1.950711 1.158235 -4.877127 1.880790849211783e-38
-1.950712 1.173475 -4.877127 1.880790849211783e-38
-1.950712 1.188715 -4.877127 1.880790849211783e-38
-1.950711 1.203955 -4.877127 1.880790849211783e-38
-1.950711 1.219195 -4.877127 1.880790849211783e-38
-1.950711 1.234435 -4.877127 1.880790849211783e-38
-1.950711 1.249675 -4.877127 1.880790849211783e-38
-1.950712 1.264915 -4.877127 1.880790849211783e-38
-1.950712 1.280154 -4.877127 1.880790849211783e-38
-1.950712 1.295394 -4.877127 1.880790849211783e-38
-1.950712 1.310634 -4.877127 1.880790849211783e-38
-1.950711 1.325874 -4.877126 1.880790849211783e-38
-1.950711 1.341114 -4.877126 1.880790849211783e-38
-1.950711 1.356354 -4.877127 1.880790849211783e-38
-1.950711 1.371594 -4.877126 1.880790849211783e-38
-1.950711 1.386834 -4.877127 1.880790849211783e-38
-1.950711 1.402074 -4.877127 1.880790849211783e-38
-1.950712 1.417314 -4.877127 1.880790849211783e-38
-1.950711 1.432554 -4.877127 1.880790849211783e-38
-1.950711 1.447794 -4.877126 1.880790849211783e-38
-1.950711 1.463034 -4.877126 1.880790849211783e-38
-1.950711 1.478273 -4.877126 1.880790849211783e-38
-1.950711 1.493513 -4.877126 1.880790849211783e-38
-1.950711 1.508753 -4.877126 1.880790849211783e-38
-1.950712 1.523993 -4.877127 1.880790849211783e-38
-1.950711 1.539233 -4.877127 1.880790849211783e-38
-1.950712 1.554473 -4.877127 1.880790849211783e-38
-1.950711 1.569713 -4.877127 1.880790849211783e-38
-1.950711 1.584953 -4.877127 1.880790849211783e-38
-1.950712 1.600193 -4.877127 1.880790849211783e-38
-1.950711 1.615433 -4.877126 1.880790849211783e-38
-1.950712 1.630673 -4.877127 1.880790849211783e-38
-1.950711 1.645913 -4.877127 1.880790849211783e-38
-1.950711 1.661153 -4.877126 1.880790849211783e-38
-1.950711 1.676393 -4.877126 1.880790849211783e-38
-1.950711 1.691633 -4.877126 1.880790849211783e-38
-1.950711 1.706872 -4.877126 1.880790849211783e-38
-1.950712 1.722113 -4.877127 1.880790849211783e-38
-1.950711 1.737352 -4.877127 1.880790849211783e-38
-1.950711 1.752592 -4.877127 1.880790849211783e-38
-1.950711 1.767832 -4.877126 1.880790849211783e-38
-1.950712 1.783072 -4.877127 1.880790849211783e-38
-1.950712 1.798313 -4.877127 1.880790849211783e-38
-1.950711 1.813552 -4.877127 1.880790849211783e-38
-1.950711 1.828792 -4.877127 1.880790849211783e-38
-1.950711 1.844032 -4.877126 1.880790849211783e-38
-1.950711 1.859272 -4.877126 1.880790849211783e-38
-1.950711 1.874512 -4.877126 1.880790849211783e-38
-1.950712 1.889752 -4.877127 1.880790849211783e-38
-1.950711 1.904992 -4.877127 1.880790849211783e-38
-1.950711 1.920231 -4.877126 1.880790849211783e-38
-1.950711 1.935471 -4.877126 1.880790849211783e-38
-1.132654 -1.141573 -2.854136 4.333194603576166e-39
-1.141573 -1.141573 -2.876609 4.333194603576166e-39
-1.150633 -1.141573 -2.899440 4.333194603576166e-39
-1.159838 -1.141573 -2.922635 4.333194603576166e-39
-1.169191 -1.141573 -2.946205 4.333194603576166e-39
-1.178697 -1.141573 -2.970158 4.333194603576166e-39
-1.188359 -1.141573 -2.994503 4.333194603576166e-39
-1.198180 -1.141573 -3.019250 4.333194603576166e-39
-1.208165 -1.141573 -3.044412 4.333194603576166e-39
-1.218317 -1.141573 -3.069994 4.333194603576166e-39
-1.228642 -1.141573 -3.096011 4.333194603576166e-39
-1.239143 -1.141573 -3.122473 4.333194603576166e-39
-1.249825 -1.141573 -3.149391 4.333194603576166e-39
-1.260693 -1.141573 -3.176777 4.333194603576166e-39
-1.271752 -1.141573 -3.204643 4.333194603576166e-39
-1.283007 -1.141573 -3.233003 4.333194603576166e-39
-1.294462 -1.141573 -3.261869 4.333194603576166e-39
-1.306124 -1.141573 -3.291255 4.333194603576166e-39
-1.317998 -1.141573 -3.321176 4.333194603576166e-39
-1.330089 -1.141573 -3.351645 4.333194603576166e-39
-1.342405 -1.141573 -3.382679 4.333194603576166e-39
-1.354951 -1.141573 -3.414293 4.333194603576166e-39
-1.367733 -1.141573 -3.446503 4.333194603576166e-39
-1.380759 -1.141573 -3.479327 4.333194603576166e-39
-1.394036 -1.141573 -3.512782 4.333194603576166e-39
-1.407570 -1.141573 -3.546886 4.333194603576166e-39
-1.421370 -1.141573 -3.581661 4.333194603576166e-39
-1.435443 -1.141573 -3.617122 4.333194603576166e-39
-1.449797 -1.141573 -3.653293 4.333194603576166e-39
-1.464442 -1.141573 -3.690195 4.333194603576166e-39
-1.479385 -1.141573 -3.727850 4.333194603576166e-39
-1.494636 -1.141573 -3.766281 4.333194603576166e-39
-1.510206 -1.141573 -3.805514 4.333194603576166e-39
-1.526102 -1.141573 -3.845572 4.333194603576166e-39
-1.542338 -1.141573 -3.886482 4.333194603576166e-39
-1.558922 -1.141573 -3.928273 4.333194603576166e-39
-1.575867 -1.141573 -3.970971 4.333194603576166e-39
-1.593184 -1.141573 -4.014608 4.333194603576166e-39
-1.610886 -1.141573 -4.059215 4.333194603576166e-39
-1.628986 -1.141573 -4.104824 4.333194603576166e-39
-1.647497 -1.141573 -4.151470 4.333194603576166e-39
-1.666434 -1.141573 -4.199187 4.333194603576166e-39
-1.685811 -1.141573 -4.248015 4.333194603576166e-39
-1.705644 -1.141573 -4.297992 4.333194603576166e-39
-1.725949 -1.141573 -4.349158 4.333194603576166e-39
-1.746744 -1.141573 -4.401558 4.333194603576166e-39
-1.768045 -1.141572 -4.455235 4.333194603576166e-39
-1.789873 -1.141573 -4.510238 4.333194603576166e-39
-1.812247 -1.141573 -4.566616 4.333194603576166e-39
-1.835186 -1.141573 -4.624422 4.333194603576166e-39
-1.858714 -1.141573 -4.683709 4.333194603576166e-39
-1.882854 -1.141573 -4.744537 4.333194603576166e-39
-1.907628 -1.141573 -4.806964 4.333194603576166e-39
-1.933063 -1.141573 -4.871058 4.333194603576166e-39
-1.935472 -1.127755 -4.877127 1.880790849211783e-38
-1.935472 -1.112515 -4.877127 1.880790849211783e-38
-1.935472 -1.097275 -4.877128 1.880790849211783e-38
-1.935471 -1.082035 -4.877127 1.880790849211783e-38
-1.935472 -1.066795 -4.877127 1.880790849211783e-38
-1.935471 -1.051555 -4.877126 1.880790849211783e-38
-1.935472 -1.036315 -4.877127 1.880790849211783e-38
-1.935471 -1.021075 -4.877126 1.880790849211783e-38
-1.935471 -1.005836 -4.877126 1.880790849211783e-38
-1.935472 -0.990596 -4.877127 1.880790849211783e-38
-1.935471 -0.975356 -4.877126 1.880790849211783e-38
-1.935471 -0.960116 -4.877126 1.880790849211783e-38
-1.935471 -0.944876 -4.877127 1.880790849211783e-38
-1.935472 -0.929636 -4.877127 1.880790849211783e-38
-1.935472 -0.914396 -4.877126 1.880790849211783e-38
-1.935472 -0.899156 -4.877127 1.880790849211783e-38
-1.935472 -0.883916 -4.877127 1.880790849211783e-38
-1.935471 -0.868676 -4.877127 1.880790849211783e-38
-1.935471 -0.853436 -4.877127 1.880790849211783e-38
-1.935472 -0.838196 -4.877127 1.880790849211783e-38
-1.935471 -0.822956 -4.877126 1.880790849211783e-38
-1.935471 -0.807716 -4.877127 1.880790849211783e-38
-1.935471 -0.792476 -4.877126 1.880790849211783e-38
-1.935471 -0.777237 -4.877127 1.880790849211783e-38
-1.935472 -0.761997 -4.877127 1.880790849211783e-38
-1.935471 -0.746757 -4.877127 1.880790849211783e-38
-1.935471 -0.731517 -4.877126 1.880790849211783e-38
-1.935471 -0.716277 -4.877126 1.880790849211783e-38
-1.935472 -0.701037 -4.877127 1.880790849211783e-38
-1.935471 -0.685797 -4.877126 1.880790849211783e-38
-1.935471 -0.670557 -4.877126 1.880790849211783e-38
-1.935472 -0.655317 -4.877127 1.880790849211783e-38
-1.935472 -0.640077 -4.877127 1.880790849211783e-38
-1.935471 -0.624837 -4.877126 1.880790849211783e-38
-1.935472 -0.609597 -4.877127 1.880790849211783e-38
-1.935471 -0.594357 -4.877127 1.880790849211783e-38
-1.935471 -0.579117 -4.877126 1.880790849211783e-38
-1.935472 -0.563878 -4.877127 1.880790849211783e-38
-1.935471 -0.548638 -4.877126 1.880790849211783e-38
-1.935472 -0.533398 -4.877127 1.880790849211783e-38
-1.935471 -0.518158 -4.877127 1.880790849211783e-38
-1.935472 -0.502918 -4.877127 1.880790849211783e-38
-1.935472 -0.487678 -4.877127 1.880790849211783e-38
-1.935472 -0.472438 -4.877127 1.880790849211783e-38
-1.935471 -0.457198 -4.877127 1.880790849211783e-38
-1.935472 -0.441958 -4.877127 1.880790849211783e-38
-1.935471 -0.426718 -4.877127 1.880790849211783e-38
-1.935471 -0.411478 -4.877126 1.880790849211783e-38
-1.935472 -0.396238 -4.877127 1.880790849211783e-38
-1.935472 -0.380998 -4.877127 1.880790849211783e-38
-1.935471 -0.365758 -4.877126 1.880790849211783e-38
-1.935471 -0.350518 -4.877127 1.880790849211783e-38
-1.935471 -0.335279 -4.877126 1.880790849211783e-38
-1.935471 -0.320039 -4.877127 1.880790849211783e-38
-1.935472 -0.304799 -4.877127 1.880790849211783e-38
-1.935472 -0.289559 -4.877127 1.880790849211783e-38
-1.935471 -0.274319 -4.877127 1.880790849211783e-38
-1.935472 -0.259079 -4.877127 1.880790849211783e-38
-1.935471 -0.243839 -4.877126 1.880790849211783e-38
-1.935472 -0.228599 -4.877127 1.880790849211783e-38
-1.935471 -0.213359 -4.877126 1.880790849211783e-38
-1.935472 -0.198119 -4.877127 1.880790849211783e-38
-1.935471 -0.182879 -4.877127 1.880790849211783e-38
-1.935472 -0.167639 -4.877127 1.880790849211783e-38
-1.935471 -0.152399 -4.877127 1.880790849211783e-38
-1.935471 -0.137159 -4.877127 1.880790849211783e-38
-1.935471 -0.121919 -4.877127 1.880790849211783e-38
-1.935471 -0.106680 -4.877127 1.880790849211783e-38
-1.935471 -0.091440 -4.877127 1.880790849211783e-38
-1.935471 -0.076200 -4.877126 1.880790849211783e-38
-1.935471 -0.060960 -4.877126 1.880790849211783e-38
-1.935472 -0.045720 -4.877127 1.880790849211783e-38
-1.935472 -0.030480 -4.877127 1.880790849211783e-38
-1.935472 -0.015240 -4.877127 1.880790849211783e-38
-1.935471 0.000000 -4.877127 1.880790849211783e-38
-1.935472 0.015240 -4.877127 1.880790849211783e-38
-1.935472 0.030480 -4.877127 1.880790849211783e-38
-1.935472 0.045720 -4.877127 1.880790849211783e-38
-1.935471 0.060960 -4.877126 1.880790849211783e-38
-1.935471 0.076200 -4.877126 1.880790849211783e-38
-1.935471 0.091440 -4.877127 1.880790849211783e-38
-1.935471 0.106680 -4.877127 1.880790849211783e-38
-1.935471 0.121919 -4.877127 1.880790849211783e-38
-1.935471 0.137159 -4.877127 1.880790849211783e-38
-1.935471 0.152399 -4.877127 1.880790849211783e-38
-1.935472 0.167639 -4.877127 1.880790849211783e-38
-1.935471 0.182879 -4.877127 1.880790849211783e-38
-1.935472 0.198119 -4.877127 1.880790849211783e-38
-1.935471 0.213359 -4.877126 1.880790849211783e-38
-1.935472 0.228599 -4.877127 1.880790849211783e-38
-1.935471 0.243839 -4.877126 1.880790849211783e-38
-1.935472 0.259079 -4.877127 1.880790849211783e-38
-1.935471 0.274319 -4.877127 1.880790849211783e-38
-1.935472 0.289559 -4.877127 1.880790849211783e-38
-1.935472 0.304799 -4.877127 1.880790849211783e-38
-1.935471 0.320039 -4.877127 1.880790849211783e-38
-1.935471 0.335279 -4.877126 1.880790849211783e-38
-1.935471 0.350518 -4.877127 1.880790849211783e-38
-1.935471 0.365758 -4.877126 1.880790849211783e-38
-1.935472 0.380998 -4.877127 1.880790849211783e-38
-1.935472 0.396238 -4.877127 1.880790849211783e-38
-1.935471 0.411478 -4.877126 1.880790849211783e-38
-1.935471 0.426718 -4.877127 1.880790849211783e-38
-1.935472 0.441958 -4.877127 1.880790849211783e-38
-1.935471 0.457198 -4.877127 1.880790849211783e-38
-1.935472 0.472438 -4.877127 1.880790849211783e-38
-1.935472 0.487678 -4.877127 1.880790849211783e-38
-1.935472 0.502918 -4.877127 1.880790849211783e-38
-1.935471 0.518158 -4.877127 1.880790849211783e-38
-1.935472 0.533398 -4.877127 1.880790849211783e-38
-1.935471 0.548638 -4.877126 1.880790849211783e-38
-1.935472 0.563878 -4.877127 1.880790849211783e-38
-1.935471 0.579117 -4.877126 1.880790849211783e-38
-1.935471 0.594357 -4.877127 1.880790849211783e-38
-1.935472 0.609597 -4.877127 1.880790849211783e-38
-1.935471 0.624837 -4.877126 1.880790849211783e-38
-1.935472 0.640077 -4.877127 1.880790849211783e-38
-1.935472 0.655317 -4.877127 1.880790849211783e-38
-1.935471 0.670557 -4.877126 1.880790849211783e-38
-1.935471 0.685797 -4.877126 1.880790849211783e-38
-1.935472 0.701037 -4.877127 1.880790849211783e-38
-1.935471 0.716277 -4.877126 1.880790849211783e-38
-1.935471 0.731517 -4.877126 1.880790849211783e-38
-1.935471 0.746757 -4.877127 1.880790849211783e-38
-1.935472 0.761997 -4.877127 1.880790849211783e-38
-1.935471 0.777237 -4.877127 1.880790849211783e-38
-1.935471 0.792476 -4.877126 1.880790849211783e-38
-1.935471 0.807716 -4.877127 1.880790849211783e-38
-1.935471 0.822956 -4.877126 1.880790849211783e-38
-1.935472 0.838196 -4.877127 1.880790849211783e-38
-1.935471 0.853436 -4.877127 1.880790849211783e-38
-1.935471 0.868676 -4.877127 1.880790849211783e-38
-1.935472 0.883916 -4.877127 1.880790849211783e-38
-1.935472 0.899156 -4.877127 1.880790849211783e-38
-1.935472 0.914396 -4.877126 1.880790849211783e-38
-1.935472 0.929636 -4.877127 1.880790849211783e-38
-1.935471 0.944876 -4.877127 1.880790849211783e-38
-1.935471 0.960116 -4.877126 1.880790849211783e-38
-1.935471 0.975356 -4.877126 1.880790849211783e-38
-1.935472 0.990596 -4.877127 1.880790849211783e-38
-1.935472 1.005836 -4.877126 1.880790849211783e-38
-1.935471 1.021075 -4.877126 1.880790849211783e-38
-1.935472 1.036315 -4.877127 1.880790849211783e-38
-1.935471 1.051555 -4.877126 1.880790849211783e-38
-1.935472 1.066795 -4.877127 1.880790849211783e-38
-1.935471 1.082035 -4.877126 1.880790849211783e-38
-1.935471 1.097275 -4.877127 1.880790849211783e-38
-1.935472 1.112515 -4.877127 1.880790849211783e-38
-1.935472 1.127755 -4.877127 1.880790849211783e-38
-1.935471 1.142995 -4.877126 1.880790849211783e-38
-1.935471 1.158235 -4.877127 1.880790849211783e-38
-1.935471 1.173475 -4.877127 1.880790849211783e-38
-1.935471 1.188715 -4.877127 1.880790849211783e-38
-1.935471 1.203955 -4.877127 1.880790849211783e-38
-1.935472 1.219195 -4.877127 1.880790849211783e-38
-1.935471 1.234435 -4.877126 1.880790849211783e-38
-1.935472 1.249675 -4.877127 1.880790849211783e-38
-1.935471 1.264914 -4.877126 1.880790849211783e-38
-1.935472 1.280154 -4.877127 1.880790849211783e-38
-1.935472 1.295394 -4.877127 1.880790849211783e-38
-1.935471 1.310634 -4.877126 1.880790849211783e-38
-1.935472 1.325874 -4.877127 1.880790849211783e-38
-1.935472 1.341114 -4.877127 1.880790849211783e-38
-1.935472 1.356354 -4.877127 1.880790849211783e-38
-1.935472 1.371594 -4.877127 1.880790849211783e-38
-1.935472 1.386834 -4.877127 1.880790849211783e-38
-1.935472 1.402074 -4.877127 1.880790849211783e-38
-1.935472 1.417314 -4.877127 1.880790849211783e-38
-1.935471 1.432554 -4.877126 1.880790849211783e-38
-1.935471 1.447794 -4.877127 1.880790849211783e-38
-1.935471 1.463033 -4.877127 1.880790849211783e-38
-1.935472 1.478274 -4.877127 1.880790849211783e-38
-1.935472 1.493514 -4.877127 1.880790849211783e-38
-1.935472 1.508753 -4.877127 1.880790849211783e-38
-1.935472 1.523994 -4.877127 1.880790849211783e-38
-1.935471 1.539233 -4.877127 1.880790849211783e-38
-1.935471 1.554473 -4.877126 1.880790849211783e-38
-1.935472 1.569713 -4.877127 1.880790849211783e-38
-1.935471 1.584953 -4.877126 1.880790849211783e-38
-1.935472 1.600193 -4.877127 1.880790849211783e-38
-1.935471 1.615433 -4.877126 1.880790849211783e-38
-1.935472 1.630673 -4.877127 1.880790849211783e-38
-1.935471 1.645913 -4.877126 1.880790849211783e-38
-1.935471 1.661153 -4.877126 1.880790849211783e-38
-1.935472 1.676393 -4.877127 1.880790849211783e-38
-1.935471 1.691633 -4.877126 1.880790849211783e-38
-1.935472 1.706873 -4.877127 1.880790849211783e-38
-1.935471 1.722112 -4.877126 1.880790849211783e-38
-1.935471 1.737352 -4.877127 1.880790849211783e-38
-1.935472 1.752592 -4.877127 1.880790849211783e-38
-1.935472 1.767832 -4.877127 1.880790849211783e-38
-1.935471 1.783072 -4.877127 1.880790849211783e-38
-1.935472 1.798312 -4.877127 1.880790849211783e-38
-1.935471 1.813552 -4.877127 1.880790849211783e-38
-1.935471 1.828792 -4.877127 1.880790849211783e-38
-1.935471 1.844032 -4.877126 1.880790849211783e-38
-1.935471 1.859272 -4.877127 1.880790849211783e-38
-1.935471 1.874512 -4.877127 1.880790849211783e-38
-1.935471 1.889752 -4.877127 1.880790849211783e-38
-1.935472 1.904992 -4.877127 1.880790849211783e-38
-1.935472 1.920232 -4.877127 1.880790849211783e-38
-1.935471 1.935471 -4.877127 1.880790849211783e-38
-1.123736 -1.141573 -2.854136 4.333194603576166e-39
-1.132584 -1.141573 -2.876609 4.333194603576166e-39
-1.141573 -1.141573 -2.899439 4.333194603576166e-39
-1.150705 -1.141573 -2.922635 4.333194603576166e-39
-1.159985 -1.141573 -2.946204 4.333194603576166e-39
-1.169416 -1.141573 -2.970157 4.333194603576166e-39
-1.179001 -1.141573 -2.994503 4.333194603576166e-39
-1.188745 -1.141573 -3.019251 4.333194603576166e-39
-1.198651 -1.141573 -3.044411 4.333194603576166e-39
-1.208724 -1.141573 -3.069994 4.333194603576166e-39
-1.218967 -1.141573 -3.096011 4.333194603576166e-39
-1.229386 -1.141573 -3.122473 4.333194603576166e-39
-1.239984 -1.141573 -3.149391 4.333194603576166e-39
-1.250767 -1.141573 -3.176777 4.333194603576166e-39
-1.261738 -1.141573 -3.204643 4.333194603576166e-39
-1.272904 -1.141573 -3.233003 4.333194603576166e-39
-1.284269 -1.141573 -3.261869 4.333194603576166e-39
-1.295839 -1.141573 -3.291255 4.333194603576166e-39
-1.307620 -1.141573 -3.321176 4.333194603576166e-39
-1.319616 -1.141573 -3.351645 4.333194603576166e-39
-1.331835 -1.141573 -3.382679 4.333194603576166e-39
-1.344282 -1.141573 -3.414293 4.333194603576166e-39
-1.356964 -1.141573 -3.446503 4.333194603576166e-39
-1.369887 -1.141573 -3.479327 4.333194603576166e-39
-1.383059 -1.141573 -3.512782 4.333194603576166e-39
-1.396487 -1.141573 -3.546887 4.333194603576166e-39
-1.410178 -1.141573 -3.581661 4.333194603576166e-39
-1.424140 -1.141573 -3.617122 4.333194603576166e-39
-1.438382 -1.141573 -3.653293 4.333194603576166e-39
-1.452911 -1.141573 -3.690196 4.333194603576166e-39
-1.467736 -1.141573 -3.727850 4.333194603576166e-39
-1.482868 -1.141573 -3.766283 4.333194603576166e-39
-1.498314 -1.141573 -3.805514 4.333194603576166e-39
-1.514086 -1.141573 -3.845572 4.333194603576166e-39
-1.530193 -1.141573 -3.886482 4.333194603576166e-39
-1.546647 -1.141573 -3.928272 4.333194603576166e-39
-1.563458 -1.141573 -3.970971 4.333194603576166e-39
-1.580639 -1.141573 -4.014608 4.333194603576166e-39
-1.598202 -1.141573 -4.059215 4.333194603576166e-39
-1.616159 -1.141573 -4.104824 4.333194603576166e-39
-1.634525 -1.141573 -4.151469 4.333194603576166e-39
-1.653312 -1.141573 -4.199188 4.333194603576166e-39
-1.672536 -1.141573 -4.248015 4.333194603576166e-39
-1.692213 -1.141572 -4.297991 4.333194603576166e-39
-1.712359 -1.141573 -4.349158 4.333194603576166e-39
-1.732990 -1.141573 -4.401558 4.333194603576166e-39
-1.754124 -1.141573 -4.455235 4.333194603576166e-39
-1.775780 -1.141573 -4.510238 4.333194603576166e-39
-1.797977 -1.141573 -4.566616 4.333194603576166e-39
-1.820736 -1.141573 -4.624421 4.333194603576166e-39
-1.844079 -1.141573 -4.683709 4.333194603576166e-39
-1.868028 -1.141573 -4.744536 4.333194603576166e-39
-1.892607 -1.141572 -4.806963 4.333194603576166e-39
-1.917842 -1.141573 -4.871057 4.333194603576166e-39
-1.920232 -1.127755 -4.877127 1.880790849211783e-38
-1.920232 -1.112515 -4.877127 1.880790849211783e-38
-1.920232 -1.097275 -4.877127 1.880790849211783e-38
-1.920231 -1.082035 -4.877127 1.880790849211783e-38
-1.920232 -1.066795 -4.877127 1.880790849211783e-38
-1.920231 -1.051555 -4.877126 1.880790849211783e-38
-1.920232 -1.036316 -4.877127 1.880790849211783e-38
-1.920232 -1.021076 -4.877127 1.880790849211783e-38
-1.920232 -1.005836 -4.877127 1.880790849211783e-38
-1.920232 -0.990596 -4.877126 1.880790849211783e-38
-1.920232 -0.975356 -4.877127 1.880790849211783e-38
-1.920232 -0.960116 -4.877127 1.880790849211783e-38
-1.920231 -0.944876 -4.877126 1.880790849211783e-38
-1.920232 -0.929636 -4.877127 1.880790849211783e-38
-1.920232 -0.914396 -4.877127 1.880790849211783e-38
-1.920232 -0.899156 -4.877126 1.880790849211783e-38
-1.920232 -0.883916 -4.877126 1.880790849211783e-38
-1.920232 -0.868676 -4.877127 1.880790849211783e-38
-1.920231 -0.853436 -4.877126 1.880790849211783e-38
-1.920232 -0.838196 -4.877127 1.880790849211783e-38
-1.920231 -0.822956 -4.877126 1.880790849211783e-38
-1.920232 -0.807716 -4.877126 1.880790849211783e-38
-1.920232 -0.792477 -4.877127 1.880790849211783e-38
-1.920232 -0.777237 -4.877127 1.880790849211783e-38
-1.920232 -0.761997 -4.877127 1.880790849211783e-38
-1.920232 -0.746757 -4.877127 1.880790849211783e-38
-1.920231 -0.731517 -4.877126 1.880790849211783e-38
-1.920232 -0.716277 -4.877126 1.880790849211783e-38
-1.920232 -0.701037 -4.877126 1.880790849211783e-38
-1.920232 -0.685797 -4.877127 1.880790849211783e-38
-1.920231 -0.670557 -4.877126 1.880790849211783e-38
-1.920232 -0.655317 -4.877126 1.880790849211783e-38
-1.920232 -0.640077 -4.877127 1.880790849211783e-38
-1.920232 -0.624837 -4.877127 1.880790849211783e-38
-1.920232 -0.609597 -4.877127 1.880790849211783e-38
-1.920232 -0.594357 -4.877127 1.880790849211783e-38
-1.920232 -0.579117 -4.877127 1.880790849211783e-38
-1.920232 -0.563878 -4.877127 1.880790849211783e-38
-1.920231 -0.548638 -4.877126 1.880790849211783e-38
-1.920231 -0.533398 -4.877126 1.880790849211783e-38
-1.920232 -0.518158 -4.877127 1.880790849211783e-38
-1.920232 -0.502918 -4.877127 1.880790849211783e-38
-1.920232 -0.487678 -4.877127 1.880790849211783e-38
-1.920231 -0.472438 -4.877127 1.880790849211783e-38
-1.920232 -0.457198 -4.877127 1.880790849211783e-38
-1.920231 -0.441958 -4.877126 1.880790849211783e-38
-1.920232 -0.426718 -4.877127 1.880790849211783e-38
-1.920232 -0.411478 -4.877127 1.880790849211783e-38
-1.920232 -0.396238 -4.877126 1.880790849211783e-38
-1.920232 -0.380998 -4.877127 1.880790849211783e-38
-1.920232 -0.365758 -4.877127 1.880790849211783e-38
-1.920232 -0.350519 -4.877127 1.880790849211783e-38
-1.920232 -0.335279 -4.877127 1.880790849211783e-38
-1.920232 -0.320039 -4.877126 1.880790849211783e-38
-1.920232 -0.304799 -4.877127 1.880790849211783e-38
-1.920232 -0.289559 -4.877127 1.880790849211783e-38
-1.920232 -0.274319 -4.877127 1.880790849211783e-38
-1.920232 -0.259079 -4.877127 1.880790849211783e-38
-1.920232 -0.243839 -4.877126 1.880790849211783e-38
-1.920232 -0.228599 -4.877127 1.880790849211783e-38
-1.920231 -0.213359 -4.877126 1.880790849211783e-38
-1.920231 -0.198119 -4.877127 1.880790849211783e-38
-1.920232 -0.182879 -4.877127 1.880790849211783e-38
-1.920232 -0.167639 -4.877127 1.880790849211783e-38
-1.920232 -0.152399 -4.877127 1.880790849211783e-38
-1.920231 -0.137159 -4.877126 1.880790849211783e-38
-1.920232 -0.121919 -4.877127 1.880790849211783e-38
-1.920232 -0.106680 -4.877127 1.880790849211783e-38
-1.920232 -0.091440 -4.877127 1.880790849211783e-38
-1.920232 -0.076200 -4.877126 1.880790849211783e-38
-1.920231 -0.060960 -4.877126 1.880790849211783e-38
-1.920232 -0.045720 -4.877127 1.880790849211783e-38
-1.920231 -0.030480 -4.877126 1.880790849211783e-38
-1.920232 -0.015240 -4.877127 1.880790849211783e-38
-1.920232 0.000000 -4.877127 1.880790849211783e-38
-1.920232 0.015240 -4.877127 1.880790849211783e-38
-1.920231 0.030480 -4.877126 1.880790849211783e-38
-1.920232 0.045720 -4.877127 1.880790849211783e-38
-1.920231 0.060960 -4.877126 1.880790849211783e-38
-1.920232 0.076200 -4.877126 1.880790849211783e-38
-1.920232 0.091440 -4.877127 1.880790849211783e-38
-1.920232 0.106680 -4.877127 1.880790849211783e-38
-1.920232 0.121919 -4.877127 1.880790849211783e-38
-1.920231 0.137159 -4.877126 1.880790849211783e-38
-1.920232 0.152399 -4.877127 1.880790849211783e-38
-1.920232 0.167639 -4.877127 1.880790849211783e-38
-1.920232 0.182879 -4.877127 1.880790849211783e-38
-1.920231 0.198119 -4.877127 1.880790849211783e-38
-1.920231 0.213359 -4.877126 1.880790849211783e-38
-1.920232 0.228599 -4.877127 1.880790849211783e-38
-1.920232 0.243839 -4.877126 1.880790849211783e-38
-1.920232 0.259079 -4.877127 1.880790849211783e-38
-1.920232 0.274319 -4.877127 1.880790849211783e-38
-1.920232 0.289559 -4.877127 1.880790849211783e-38
-1.920232 0.304799 -4.877127 1.880790849211783e-38
-1.920232 0.320039 -4.877126 1.880790849211783e-38
-1.920232 0.335279 -4.877127 1.880790849211783e-38
-1.920232 0.350519 -4.877127 1.880790849211783e-38
-1.920232 0.365758 -4.877127 1.880790849211783e-38
-1.920232 0.380998 -4.877127 1.880790849211783e-38
-1.920232 0.396238 -4.877126 1.880790849211783e-38
-1.920232 0.411478 -4.877127 1.880790849211783e-38
-1.920232 0.426718 -4.877127 1.880790849211783e-38
-1.920231 0.441958 -4.877126 1.880790849211783e-38
-1.920232 0.457198 -4.877127 1.880790849211783e-38
-1.920231 0.472438 -4.877127 1.880790849211783e-38
-1.920232 0.487678 -4.877127 1.880790849211783e-38
-1.920232 0.502918 -4.877127 1.880790849211783e-38
-1.920232 0.518158 -4.877127 1.880790849211783e-38
-1.920231 0.533398 -4.877126 1.880790849211783e-38
-1.920231 0.548638 -4.877126 1.880790849211783e-38
-1.920232 0.563878 -4.877127 1.880790849211783e-38
-1.920232 0.579117 -4.877127 1.880790849211783e-38
-1.920232 0.594357 -4.877127 1.880790849211783e-38
-1.920232 0.609597 -4.877127 1.880790849211783e-38
-1.920232 0.624837 -4.877127 1.880790849211783e-38
-1.920232 0.640077 -4.877127 1.880790849211783e-38
-1.920232 0.655317 -4.877126 1.880790849211783e-38
-1.920231 0.670557 -4.877126 1.880790849211783e-38
-1.920232 0.685797 -4.877127 1.880790849211783e-38
-1.920232 0.701037 -4.877126 1.880790849211783e-38
-1.920232 0.716277 -4.877126 1.880790849211783e-38
-1.920231 0.731517 -4.877126 1.880790849211783e-38
-1.920232 0.746757 -4.877127 1.880790849211783e-38
-1.920232 0.761997 -4.877127 1.880790849211783e-38
-1.920232 0.777237 -4.877127 1.880790849211783e-38
-1.920232 0.792477 -4.877127 1.880790849211783e-38
-1.920232 0.807716 -4.877126 1.880790849211783e-38
-1.920231 0.822956 -4.877126 1.880790849211783e-38
-1.920232 0.838196 -4.877127 1.880790849211783e-38
-1.920231 0.853436 -4.877126 1.880790849211783e-38
-1.920232 0.868676 -4.877127 1.880790849211783e-38
-1.920232 0.883916 -4.877126 1.880790849211783e-38
-1.920232 0.899156 -4.877126 1.880790849211783e-38
-1.920232 0.914396 -4.877127 1.880790849211783e-38
-1.920232 0.929636 -4.877127 1.880790849211783e-38
-1.920231 0.944876 -4.877126 1.880790849211783e-38
-1.920232 0.960116 -4.877127 1.880790849211783e-38
-1.920232 0.975356 -4.877127 1.880790849211783e-38
-1.920232 0.990596 -4.877126 1.880790849211783e-38
-1.920232 1.005836 -4.877127 1.880790849211783e-38
-1.920232 1.021076 -4.877127 1.880790849211783e-38
-1.920232 1.036316 -4.877127 1.880790849211783e-38
-1.920231 1.051555 -4.877126 1.880790849211783e-38
-1.920231 1.066795 -4.877127 1.880790849211783e-38
-1.920231 1.082035 -4.877126 1.880790849211783e-38
-1.920231 1.097275 -4.877126 1.880790849211783e-38
-1.920232 1.112515 -4.877127 1.880790849211783e-38
-1.920232 1.127755 -4.877127 1.880790849211783e-38
-1.920232 1.142995 -4.877127 1.880790849211783e-38
-1.920232 1.158235 -4.877126 1.880790849211783e-38
-1.920231 1.173475 -4.877126 1.880790849211783e-38
-1.920232 1.188715 -4.877127 1.880790849211783e-38
-1.920232 1.203955 -4.877126 1.880790849211783e-38
-1.920232 1.219195 -4.877127 1.880790849211783e-38
-1.920232 1.234435 -4.877127 1.880790849211783e-38
-1.920232 1.249675 -4.877127 1.880790849211783e-38
-1.920232 1.264914 -4.877127 1.880790849211783e-38
-1.920232 1.280154 -4.877126 1.880790849211783e-38
-1.920232 1.295394 -4.877127 1.880790849211783e-38
-1.920231 1.310634 -4.877127 1.880790849211783e-38
-1.920232 1.325874 -4.877127 1.880790849211783e-38
-1.920232 1.341114 -4.877127 1.880790849211783e-38
-1.920232 1.356354 -4.877127 1.880790849211783e-38
-1.920232 1.371594 -4.877127 1.880790849211783e-38
-1.920232 1.386834 -4.877127 1.880790849211783e-38
-1.920231 1.402074 -4.877126 1.880790849211783e-38
-1.920232 1.417314 -4.877127 1.880790849211783e-38
-1.920232 1.432554 -4.877127 1.880790849211783e-38
-1.920232 1.447794 -4.877127 1.880790849211783e-38
-1.920232 1.463034 -4.877127 1.880790849211783e-38
-1.920232 1.478274 -4.877127 1.880790849211783e-38
-1.920232 1.493513 -4.877126 1.880790849211783e-38
-1.920232 1.508753 -4.877127 1.880790849211783e-38
-1.920232 1.523993 -4.877126 1.880790849211783e-38
-1.920232 1.539233 -4.877127 1.880790849211783e-38
-1.920231 1.554473 -4.877126 1.880790849211783e-38
-1.920231 1.569713 -4.877127 1.880790849211783e-38
-1.920232 1.584953 -4.877127 1.880790849211783e-38
-1.920231 1.600193 -4.877126 1.880790849211783e-38
-1.920231 1.615433 -4.877126 1.880790849211783e-38
-1.920232 1.630673 -4.877127 1.880790849211783e-38
-1.920232 1.645913 -4.877127 1.880790849211783e-38
-1.920231 1.661152 -4.877126 1.880790849211783e-38
-1.920232 1.676393 -4.877127 1.880790849211783e-38
-1.920232 1.691633 -4.877127 1.880790849211783e-38
-1.920232 1.706872 -4.877126 1.880790849211783e-38
-1.920232 1.722113 -4.877127 1.880790849211783e-38
-1.920232 1.737353 -4.877127 1.880790849211783e-38
-1.920232 1.752592 -4.877126 1.880790849211783e-38
-1.920232 1.767832 -4.877127 1.880790849211783e-38
-1.920231 1.783072 -4.877126 1.880790849211783e-38
-1.920232 1.798312 -4.877127 1.880790849211783e-38
-1.920232 1.813552 -4.877126 1.880790849211783e-38
-1.920232 1.828792 -4.877127 1.880790849211783e-38
-1.920232 1.844032 -4.877127 1.880790849211783e-38
-1.920232 1.859272 -4.877127 1.880790849211783e-38
-1.920232 1.874512 -4.877127 1.880790849211783e-38
-1.920232 1.889752 -4.877127 1.880790849211783e-38
-1.920232 1.904992 -4.877127 1.880790849211783e-38
-1.920232 1.920232 -4.877127 1.880790849211783e-38
-1.920232 1.935472 -4.877127 1.880790849211783e-38
-1.114817 -1.141573 -2.854135 4.333194603576166e-39
-1.123595 -1.141573 -2.876609 4.333194603576166e-39
-1.132513 -1.141573 -2.899439 4.333194603576166e-39
-1.141573 -1.141573 -2.922635 4.333194603576166e-39
-1.150779 -1.141573 -2.946204 4.333194603576166e-39
-1.160135 -1.141573 -2.970158 4.333194603576166e-39
-1.169644 -1.141573 -2.994503 4.333194603576166e-39
-1.179311 -1.141573 -3.019251 4.333194603576166e-39
-1.189138 -1.141573 -3.044411 4.333194603576166e-39
-1.199131 -1.141573 -3.069995 4.333194603576166e-39
-1.209293 -1.141573 -3.096011 4.333194603576166e-39
-1.219629 -1.141573 -3.122473 4.333194603576166e-39
-1.230143 -1.141573 -3.149391 4.333194603576166e-39
-1.240840 -1.141573 -3.176777 4.333194603576166e-39
-1.251725 -1.141573 -3.204643 4.333194603576166e-39
-1.262802 -1.141573 -3.233003 4.333194603576166e-39
-1.274077 -1.141573 -3.261869 4.333194603576166e-39
-1.285555 -1.141573 -3.291255 4.333194603576166e-39
-1.297242 -1.141573 -3.321176 4.333194603576166e-39
-1.309143 -1.141573 -3.351645 4.333194603576166e-39
-1.321265 -1.141573 -3.382679 4.333194603576166e-39
-1.333613 -1.141573 -3.414293 4.333194603576166e-39
-1.346194 -1.141573 -3.446503 4.333194603576166e-39
-1.359015 -1.141573 -3.479327 4.333194603576166e-39
-1.372082 -1.141573 -3.512782 4.333194603576166e-39
-1.385404 -1.141573 -3.546887 4.333194603576166e-39
-1.398986 -1.141573 -3.581660 4.333194603576166e-39
-1.412838 -1.141573 -3.617122 4.333194603576166e-39
-1.426966 -1.141573 -3.653294 4.333194603576166e-39
-1.441380 -1.141573 -3.690195 4.333194603576166e-39
-1.456088 -1.141573 -3.727850 4.333194603576166e-39
-1.471099 -1.141573 -3.766282 4.333194603576166e-39
-1.486423 -1.141573 -3.805514 4.333194603576166e-39
-1.502069 -1.141573 -3.845572 4.333194603576166e-39
-1.518049 -1.141573 -3.886482 4.333194603576166e-39
-1.534372 -1.141573 -3.928272 4.333194603576166e-39
-1.551049 -1.141572 -3.970970 4.333194603576166e-39
-1.568094 -1.141573 -4.014608 4.333194603576166e-39
-1.585518 -1.141573 -4.059215 4.333194603576166e-39
-1.603332 -1.141573 -4.104824 4.333194603576166e-39
-1.621552 -1.141573 -4.151470 4.333194603576166e-39
-1.640191 -1.141573 -4.199188 4.333194603576166e-39
-1.659262 -1.141573 -4.248015 4.333194603576166e-39
-1.678783 -1.141573 -4.297992 4.333194603576166e-39
-1.698769 -1.141573 -4.349158 4.333194603576166e-39
-1.719236 -1.141573 -4.401558 4.333194603576166e-39
-1.740202 -1.141573 -4.455235 4.333194603576166e-39
-1.761686 -1.141573 -4.510238 4.333194603576166e-39
-1.783707 -1.141573 -4.566617 4.333194603576166e-39
-1.806286 -1.141573 -4.624422 4.333194603576166e-39
-1.829443 -1.141573 -4.683709 4.333194603576166e-39
-1.853202 -1.141573 -4.744536 4.333194603576166e-39
-1.877587 -1.141573 -4.806965 4.333194603576166e-39
-1.902621 -1.141573 -4.871057 4.333194603576166e-39
-1.904992 -1.127755 -4.877126 1.880790849211783e-38
-1.904992 -1.112515 -4.877127 1.880790849211783e-38
-1.904992 -1.097275 -4.877127 1.880790849211783e-38
-1.904992 -1.082035 -4.877126 1.880790849211783e-38
-1.904992 -1.066795 -4.877127 1.880790849211783e-38
-1.904992 -1.051556 -4.877127 1.880790849211783e-38
-1.904991 -1.036315 -4.877126 1.880790849211783e-38
-1.904992 -1.021076 -4.877127 1.880790849211783e-38
-1.904992 -1.005836 -4.877127 1.880790849211783e-38
-1.904992 -0.990596 -4.877127 1.880790849211783e-38
-1.904992 -0.975356 -4.877127 1.880790849211783e-38
-1.904992 -0.960116 -4.877127 1.880790849211783e-38
-1.904992 -0.944876 -4.877127 1.880790849211783e-38
-1.904992 -0.929636 -4.877126 1.880790849211783e-38
-1.904992 -0.914396 -4.877126 1.880790849211783e-38
-1.904991 -0.899156 -4.877126 1.880790849211783e-38
-1.904992 -0.883916 -4.877127 1.880790849211783e-38
-1.904992 -0.868676 -4.877126 1.880790849211783e-38
-1.904992 -0.853436 -4.877127 1.880790849211783e-38
-1.904992 -0.838196 -4.877127 1.880790849211783e-38
-1.904992 -0.822956 -4.877126 1.880790849211783e-38
-1.904992 -0.807716 -4.877127 1.880790849211783e-38
-1.904992 -0.792477 -4.877127 1.880790849211783e-38
-1.904992 -0.777237 -4.877127 1.880790849211783e-38
-1.904992 -0.761997 -4.877127 1.880790849211783e-38
-1.904992 -0.746757 -4.877127 1.880790849211783e-38
-1.904992 -0.731517 -4.877127 1.880790849211783e-38
-1.904992 -0.716277 -4.877127 1.880790849211783e-38
-1.904992 -0.701037 -4.877127 1.880790849211783e-38
-1.904992 -0.685797 -4.877127 1.880790849211783e-38
-1.904992 -0.670557 -4.877127 1.880790849211783e-38
-1.904992 -0.655317 -4.877127 1.880790849211783e-38
-1.904991 -0.640077 -4.877126 1.880790849211783e-38
-1.904991 -0.624837 -4.877126 1.880790849211783e-38
-1.904992 -0.609597 -4.877126 1.880790849211783e-38
-1.904992 -0.594357 -4.877126 1.880790849211783e-38
-1.904992 -0.579117 -4.877126 1.880790849211783e-38
-1.904992 -0.563878 -4.877127 1.880790849211783e-38
-1.904991 -0.548638 -4.877126 1.880790849211783e-38
-1.904991 -0.533398 -4.877126 1.880790849211783e-38
-1.904992 -0.518158 -4.877127 1.880790849211783e-38
-1.904992 -0.502918 -4.877127 1.880790849211783e-38
-1.904992 -0.487678 -4.877127 1.880790849211783e-38
-1.904992 -0.472438 -4.877126 1.880790849211783e-38
-1.904992 -0.457198 -4.877127 1.880790849211783e-38
-1.904992 -0.441958 -4.877126 1.880790849211783e-38
-1.904992 -0.426718 -4.877127 1.880790849211783e-38
-1.904992 -0.411478 -4.877127 1.880790849211783e-38
-1.904992 -0.396238 -4.877127 1.880790849211783e-38
-1.904992 -0.380998 -4.877127 1.880790849211783e-38
-1.904991 -0.365758 -4.877126 1.880790849211783e-38
-1.904992 -0.350518 -4.877126 1.880790849211783e-38
-1.904992 -0.335279 -4.877127 1.880790849211783e-38
-1.904992 -0.320039 -4.877127 1.880790849211783e-38
-1.904991 -0.304799 -4.877126 1.880790849211783e-38
-1.904992 -0.289559 -4.877127 1.880790849211783e-38
-1.904992 -0.274319 -4.877127 1.880790849211783e-38
-1.904992 -0.259079 -4.877126 1.880790849211783e-38
-1.904992 -0.243839 -4.877127 1.880790849211783e-38
-1.904992 -0.228599 -4.877127 1.880790849211783e-38
-1.904992 -0.213359 -4.877126 1.880790849211783e-38
-1.904991 -0.198119 -4.877126 1.880790849211783e-38
-1.904992 -0.182879 -4.877126 1.880790849211783e-38
-1.904992 -0.167639 -4.877127 1.880790849211783e-38
-1.904991 -0.152399 -4.877126 1.880790849211783e-38
-1.904992 -0.137159 -4.877126 1.880790849211783e-38
-1.904992 -0.121919 -4.877127 1.880790849211783e-38
-1.904992 -0.106680 -4.877127 1.880790849211783e-38
-1.904992 -0.091440 -4.877127 1.880790849211783e-38
-1.904992 -0.076200 -4.877127 1.880790849211783e-38
-1.904992 -0.060960 -4.877127 1.880790849211783e-38
-1.904992 -0.045720 -4.877126 1.880790849211783e-38
-1.904992 -0.030480 -4.877127 1.880790849211783e-38
-1.904992 -0.015240 -4.877126 1.880790849211783e-38
-1.904992 0.000000 -4.877127 1.880790849211783e-38
-1.904992 0.015240 -4.877126 1.880790849211783e-38
-1.904992 0.030480 -4.877127 1.880790849211783e-38
-1.904992 0.045720 -4.877126 1.880790849211783e-38
-1.904992 0.060960 -4.877127 1.880790849211783e-38
-1.904992 0.076200 -4.877127 1.880790849211783e-38
-1.904992 0.091440 -4.877127 1.880790849211783e-38
-1.904992 0.106680 -4.877127 1.880790849211783e-38
-1.904992 0.121919 -4.877127 1.880790849211783e-38
-1.904992 0.137159 -4.877126 1.880790849211783e-38
-1.904991 0.152399 -4.877126 1.880790849211783e-38
-1.904992 0.167639 -4.877127 1.880790849211783e-38
-1.904992 0.182879 -4.877126 1.880790849211783e-38
-1.904991 0.198119 -4.877126 1.880790849211783e-38
-1.904992 0.213359 -4.877126 1.880790849211783e-38
-1.904992 0.228599 -4.877127 1.880790849211783e-38
-1.904992 0.243839 -4.877127 1.880790849211783e-38
-1.904992 0.259079 -4.877126 1.880790849211783e-38
-1.904992 0.274319 -4.877127 1.880790849211783e-38
-1.904992 0.289559 -4.877127 1.880790849211783e-38
-1.904991 0.304799 -4.877126 1.880790849211783e-38
-1.904992 0.320039 -4.877127 1.880790849211783e-38
-1.904992 0.335279 -4.877127 1.880790849211783e-38
-1.904992 0.350518 -4.877126 1.880790849211783e-38
-1.904991 0.365758 -4.877126 1.880790849211783e-38
-1.904992 0.380998 -4.877127 1.880790849211783e-38
-1.904992 0.396238 -4.877127 1.880790849211783e-38
-1.904992 0.411478 -4.877127 1.880790849211783e-38
-1.904992 0.426718 -4.877127 1.880790849211783e-38
-1.904992 0.441958 -4.877126 1.880790849211783e-38
-1.904992 0.457198 -4.877127 1.880790849211783e-38
-1.904992 0.472438 -4.877126 1.880790849211783e-38
-1.904992 0.487678 -4.877127 1.880790849211783e-38
-1.904992 0.502918 -4.877127 1.880790849211783e-38
-1.904992 0.518158 -4.877127 1.880790849211783e-38
-1.904991 0.533398 -4.877126 1.880790849211783e-38
-1.904991 0.548638 -4.877126 1.880790849211783e-38
-1.904992 0.563878 -4.877127 1.880790849211783e-38
-1.904992 0.579117 -4.877126 1.880790849211783e-38
-1.904992 0.594357 -4.877126 1.880790849211783e-38
-1.904992 0.609597 -4.877126 1.880790849211783e-38
-1.904991 0.624837 -4.877126 1.880790849211783e-38
-1.904991 0.640077 -4.877126 1.880790849211783e-38
-1.904992 0.655317 -4.877127 1.880790849211783e-38
-1.904992 0.670557 -4.877127 1.880790849211783e-38
-1.904992 0.685797 -4.877127 1.880790849211783e-38
-1.904992 0.701037 -4.877127 1.880790849211783e-38
-1.904992 0.716277 -4.877127 1.880790849211783e-38
-1.904992 0.731517 -4.877127 1.880790849211783e-38
-1.904992 0.746757 -4.877127 1.880790849211783e-38
-1.904992 0.761997 -4.877127 1.880790849211783e-38
-1.904992 0.777237 -4.877127 1.880790849211783e-38
-1.904992 0.792477 -4.877127 1.880790849211783e-38
-1.904992 0.807716 -4.877127 1.880790849211783e-38
-1.904992 0.822956 -4.877126 1.880790849211783e-38
-1.904992 0.838196 -4.877127 1.880790849211783e-38
-1.904992 0.853436 -4.877127 1.880790849211783e-38
-1.904992 0.868676 -4.877126 1.880790849211783e-38
-1.904992 0.883916 -4.877127 1.880790849211783e-38
-1.904991 0.899156 -4.877126 1.880790849211783e-38
-1.904992 0.914396 -4.877126 1.880790849211783e-38
-1.904992 0.929636 -4.877126 1.880790849211783e-38
-1.904992 0.944876 -4.877127 1.880790849211783e-38
-1.904992 0.960116 -4.877127 1.880790849211783e-38
-1.904992 0.975356 -4.877127 1.880790849211783e-38
-1.904992 0.990596 -4.877127 1.880790849211783e-38
-1.904992 1.005836 -4.877127 1.880790849211783e-38
-1.904992 1.021076 -4.877127 1.880790849211783e-38
-1.904991 1.036315 -4.877126 1.880790849211783e-38
-1.904992 1.051556 -4.877127 1.880790849211783e-38
-1.904992 1.066795 -4.877126 1.880790849211783e-38
-1.904992 1.082035 -4.877127 1.880790849211783e-38
-1.904992 1.097275 -4.877127 1.880790849211783e-38
-1.904992 1.112515 -4.877126 1.880790849211783e-38
-1.904992 1.127755 -4.877127 1.880790849211783e-38
-1.904992 1.142995 -4.877127 1.880790849211783e-38
-1.904992 1.158235 -4.877127 1.880790849211783e-38
-1.904992 1.173475 -4.877128 1.880790849211783e-38
-1.904992 1.188715 -4.877127 1.880790849211783e-38
-1.904992 1.203955 -4.877126 1.880790849211783e-38
-1.904992 1.219195 -4.877126 1.880790849211783e-38
-1.904992 1.234435 -4.877126 1.880790849211783e-38
-1.904992 1.249675 -4.877126 1.880790849211783e-38
-1.904992 1.264915 -4.877127 1.880790849211783e-38
-1.904992 1.280154 -4.877127 1.880790849211783e-38
-1.904991 1.295394 -4.877126 1.880790849211783e-38
-1.904992 1.310634 -4.877127 1.880790849211783e-38
-1.904992 1.325874 -4.877126 1.880790849211783e-38
-1.904992 1.341114 -4.877126 1.880790849211783e-38
-1.904991 1.356354 -4.877126 1.880790849211783e-38
-1.904992 1.371594 -4.877127 1.880790849211783e-38
-1.904992 1.386834 -4.877127 1.880790849211783e-38
-1.904992 1.402074 -4.877126 1.880790849211783e-38
-1.904992 1.417314 -4.877127 1.880790849211783e-38
-1.904992 1.432554 -4.877127 1.880790849211783e-38
-1.904992 1.447794 -4.877127 1.880790849211783e-38
-1.904992 1.463034 -4.877127 1.880790849211783e-38
-1.904992 1.478274 -4.877127 1.880790849211783e-38
-1.904992 1.493514 -4.877127 1.880790849211783e-38
-1.904992 1.508753 -4.877127 1.880790849211783e-38
-1.904992 1.523993 -4.877127 1.880790849211783e-38
-1.904992 1.539233 -4.877126 1.880790849211783e-38
-1.904992 1.554473 -4.877127 1.880790849211783e-38
-1.904991 1.569713 -4.877126 1.880790849211783e-38
-1.904992 1.584953 -4.877127 1.880790849211783e-38
-1.904992 1.600193 -4.877127 1.880790849211783e-38
-1.904992 1.615433 -4.877127 1.880790849211783e-38
-1.904992 1.630673 -4.877127 1.880790849211783e-38
-1.904992 1.645913 -4.877127 1.880790849211783e-38
-1.904992 1.661153 -4.877126 1.880790849211783e-38
-1.904992 1.676393 -4.877126 1.880790849211783e-38
-1.904992 1.691633 -4.877127 1.880790849211783e-38
-1.904992 1.706873 -4.877127 1.880790849211783e-38
-1.904992 1.722112 -4.877127 1.880790849211783e-38
-1.904992 1.737353 -4.877127 1.880790849211783e-38
-1.904992 1.752592 -4.877127 1.880790849211783e-38
-1.904991 1.767832 -4.877126 1.880790849211783e-38
-1.904992 1.783072 -4.877127 1.880790849211783e-38
-1.904992 1.798312 -4.877126 1.880790849211783e-38
-1.904992 1.813552 -4.877127 1.880790849211783e-38
-1.904991 1.828792 -4.877126 1.880790849211783e-38
-1.904992 1.844032 -4.877127 1.880790849211783e-38
-1.904992 1.859272 -4.877126 1.880790849211783e-38
-1.904992 1.874512 -4.877126 1.880790849211783e-38
-1.904992 1.889752 -4.877127 1.880790849211783e-38
-1.904992 1.904992 -4.877126 1.880790849211783e-38
-1.904992 1.920232 -4.877127 1.880790849211783e-38
-1.904992 1.935472 -4.877127 1.880790849211783e-38
-1.105899 -1.141573 -2.854136 4.333194603576166e-39
-1.114607 -1.141573 -2.876610 4.333194603576166e-39
-1.123453 -1.141573 -2.899439 4.333194603576166e-39
-1.132440 -1.141573 -2.922635 4.333194603576166e-39
-1.141573 -1.141573 -2.946204 4.333194603576166e-39
-1.150854 -1.141573 -2.970158 4.333194603576166e-39
-1.160287 -1.141573 -2.994503 4.333194603576166e-39
-1.169876 -1.141573 -3.019251 4.333194603576166e-39
-1.179625 -1.141573 -3.044411 4.333194603576166e-39
-1.189538 -1.141573 -3.069995 4.333194603576166e-39
-1.199619 -1.141573 -3.096011 4.333194603576166e-39
-1.209872 -1.141573 -3.122473 4.333194603576166e-39
-1.220302 -1.141573 -3.149391 4.333194603576166e-39
-1.230913 -1.141573 -3.176777 4.333194603576166e-39
-1.241711 -1.141573 -3.204643 4.333194603576166e-39
-1.252699 -1.141573 -3.233003 4.333194603576166e-39
-1.263884 -1.141573 -3.261869 4.333194603576166e-39
-1.275270 -1.141573 -3.291255 4.333194603576166e-39
-1.286864 -1.141573 -3.321176 4.333194603576166e-39
-1.298670 -1.141573 -3.351645 4.333194603576166e-39
-1.310695 -1.141573 -3.382679 4.333194603576166e-39
-1.322944 -1.141573 -3.414293 4.333194603576166e-39
-1.335425 -1.141573 -3.446503 4.333194603576166e-39
-1.348143 -1.141573 -3.479327 4.333194603576166e-39
-1.361106 -1.141573 -3.512782 4.333194603576166e-39
-1.374321 -1.141573 -3.546886 4.333194603576166e-39
-1.387794 -1.141573 -3.581660 4.333194603576166e-39
-1.401535 -1.141573 -3.617122 4.333194603576166e-39
-1.415550 -1.141573 -3.653294 4.333194603576166e-39
-1.429849 -1.141573 -3.690195 4.333194603576166e-39
-1.444439 -1.141573 -3.727851 4.333194603576166e-39
-1.459330 -1.141573 -3.766282 4.333194603576166e-39
-1.474531 -1.141572 -3.805513 4.333194603576166e-39
-1.490053 -1.141573 -3.845573 4.333194603576166e-39
-1.505904 -1.141573 -3.886482 4.333194603576166e-39
