# .PCD v.7 - Exported by BlenSor
VERSION .7
FIELDS x y z rgb
SIZE 4 4 4 4
TYPE F F F F
COUNT 1 1 1 1
WIDTH 946
HEIGHT 1
VIEWPOINT 0 0 0 1 0 0 0
POINTS 946
DATA ascii
1.828877 1.447861 -4.877355 1.880790849211783e-38
1.826410 1.461128 -4.870774 1.880790849211783e-38
1.829962 1.479219 -4.880248 1.880790849211783e-38
1.824530 1.490033 -4.865761 1.880790849211783e-38
1.826197 1.506613 -4.870207 1.880790849211783e-38
1.831203 1.526003 -4.883557 1.880790849211783e-38
1.826027 1.536906 -4.869753 1.880790849211783e-38
1.829678 1.555227 -4.879491 1.880790849211783e-38
1.828469 1.569436 -4.876265 1.880790849211783e-38
1.826636 1.583084 -4.871376 1.880790849211783e-38
1.834984 1.605611 -4.893641 1.880790849211783e-38
1.829054 1.615664 -4.877825 1.880790849211783e-38
1.827255 1.629303 -4.873028 1.880790849211783e-38
1.827241 1.644517 -4.872990 1.880790849211783e-38
1.828384 1.660782 -4.876038 1.880790849211783e-38
1.825073 1.672983 -4.867208 1.880790849211783e-38
1.827276 1.690230 -4.873083 1.880790849211783e-38
1.826909 1.705115 -4.872106 1.880790849211783e-38
1.829992 1.723243 -4.880327 1.880790849211783e-38
1.826718 1.735382 -4.871594 1.880790849211783e-38
1.826034 1.749949 -4.869771 1.880790849211783e-38
1.826122 1.765252 -4.870007 1.880790849211783e-38
1.828560 1.782846 -4.876508 1.880790849211783e-38
1.829100 1.798615 -4.877949 1.880790849211783e-38
1.829244 1.814001 -4.878333 1.880790849211783e-38
1.828118 1.828118 -4.875329 1.880790849211783e-38
1.832005 1.847271 -4.885695 1.880790849211783e-38
1.830486 1.860995 -4.881645 1.880790849211783e-38
1.832384 1.878194 -4.886706 1.880790849211783e-38
1.831684 1.892740 -4.884838 1.880790849211783e-38
1.830373 1.906639 -4.881344 1.880790849211783e-38
1.829469 1.920942 -4.878931 1.880790849211783e-38
1.824396 1.930818 -4.865402 1.880790849211783e-38
1.075808 -1.138044 -2.845314 4.333194603576166e-39
1.087249 -1.141162 -2.875575 4.333194603576166e-39
1.096445 -1.141753 -2.899897 4.333194603576166e-39
1.102243 -1.138681 -2.915231 4.333194603576166e-39
1.113859 -1.141475 -2.945953 4.333194603576166e-39
1.129284 -1.147949 -2.986748 4.333194603576166e-39
1.125902 -1.135207 -2.977805 4.333194603576166e-39
1.143657 -1.143657 -3.024765 4.333194603576166e-39
1.158161 -1.148590 -3.063124 4.333194603576166e-39
1.157620 -1.138486 -3.061693 4.333194603576166e-39
1.176513 -1.147344 -3.111662 4.333194603576166e-39
1.182467 -1.143377 -3.127409 4.333194603576166e-39
1.189006 -1.139873 -3.144703 4.333194603576166e-39
1.204239 -1.144524 -3.184990 4.333194603576166e-39
1.214651 -1.144382 -3.212529 4.333194603576166e-39
1.216517 -1.136086 -3.217465 4.333194603576166e-39
1.239156 -1.146987 -3.277340 4.333194603576166e-39
1.244684 -1.141817 -3.291960 4.333194603576166e-39
1.250311 -1.136647 -3.306844 4.333194603576166e-39
1.270964 -1.144918 -3.361466 4.333194603576166e-39
1.274280 -1.137374 -3.370236 4.333194603576166e-39
1.286326 -1.137495 -3.402097 4.333194603576166e-39
1.301384 -1.140056 -3.441923 4.333194603576166e-39
1.316671 -1.142566 -3.482354 4.333194603576166e-39
1.328789 -1.142099 -3.514402 4.333194603576166e-39
1.341897 -1.142276 -3.549071 4.333194603576166e-39
1.359718 -1.146209 -3.596205 4.333194603576166e-39
1.364201 -1.138713 -3.608063 4.333194603576166e-39
1.380384 -1.140813 -3.650863 4.333194603576166e-39
1.394505 -1.140959 -3.688211 4.333194603576166e-39
1.405624 -1.138439 -3.717617 4.333194603576166e-39
1.425356 -1.142641 -3.769805 4.333194603576166e-39
1.442175 -1.144205 -3.814288 4.333194603576166e-39
1.451839 -1.139874 -3.839848 4.333194603576166e-39
1.469861 -1.141876 -3.887513 4.333194603576166e-39
1.485753 -1.141942 -3.929544 4.333194603576166e-39
1.498520 -1.139370 -3.963310 4.333194603576166e-39
1.521123 -1.143985 -4.023091 4.333194603576166e-39
1.534293 -1.141209 -4.057923 4.333194603576166e-39
1.554883 -1.143674 -4.112381 4.333194603576166e-39
1.574369 -1.144996 -4.163918 4.333194603576166e-39
1.593894 -1.146023 -4.215557 4.333194603576166e-39
1.602884 -1.139240 -4.239333 4.333194603576166e-39
1.624497 -1.141175 -4.296495 4.333194603576166e-39
1.646136 -1.142772 -4.353727 4.333194603576166e-39
1.664749 -1.141935 -4.402956 4.333194603576166e-39
1.685172 -1.142017 -4.456971 4.333194603576166e-39
1.703868 -1.140606 -4.506419 4.333194603576166e-39
1.729503 -1.143473 -4.574218 4.333194603576166e-39
1.747657 -1.141032 -4.622233 4.333194603576166e-39
1.772898 -1.142860 -4.688991 4.333194603576166e-39
1.794038 -1.141661 -4.744902 4.333194603576166e-39
1.814838 -1.139898 -4.799915 4.333194603576166e-39
1.831734 -1.135372 -4.844601 4.333194603576166e-39
1.843948 -1.127704 -4.876905 1.880790849211783e-38
1.838865 -1.109397 -4.863460 1.880790849211783e-38
1.842240 -1.096209 -4.872387 1.880790849211783e-38
1.846935 -1.083739 -4.884806 1.880790849211783e-38
1.845061 -1.067391 -4.879848 1.880790849211783e-38
1.850062 -1.054994 -4.893075 1.880790849211783e-38
1.841470 -1.034875 -4.870349 1.880790849211783e-38
1.841386 -1.019611 -4.870130 1.880790849211783e-38
1.842464 -1.004980 -4.872979 1.880790849211783e-38
1.849028 -0.993280 -4.890341 1.880790849211783e-38
1.849492 -0.978244 -4.891567 1.880790849211783e-38
1.839482 -0.957747 -4.865092 1.880790849211783e-38
1.844278 -0.945002 -4.877778 1.880790849211783e-38
1.839835 -0.927520 -4.866027 1.880790849211783e-38
1.838704 -0.911754 -4.863035 1.880790849211783e-38
1.843540 -0.898916 -4.875825 1.880790849211783e-38
1.839812 -0.881894 -4.865967 1.880790849211783e-38
1.845411 -0.869326 -4.880773 1.880790849211783e-38
1.845080 -0.853921 -4.879898 1.880790849211783e-38
1.846178 -0.839172 -4.882802 1.880790849211783e-38
1.840849 -0.821536 -4.868708 1.880790849211783e-38
1.846018 -0.808587 -4.882380 1.880790849211783e-38
1.847329 -0.793893 -4.885846 1.880790849211783e-38
1.843372 -0.776958 -4.875381 1.880790849211783e-38
1.844075 -0.762014 -4.877240 1.880790849211783e-38
1.844245 -0.746843 -4.877691 1.880790849211783e-38
1.835085 -0.727968 -4.853464 1.880790849211783e-38
1.846155 -0.717102 -4.882743 1.880790849211783e-38
1.841895 -0.700225 -4.871475 1.880790849211783e-38
1.840278 -0.684401 -4.867198 1.880790849211783e-38
1.836385 -0.667776 -4.856901 1.880790849211783e-38
1.842103 -0.654632 -4.872025 1.880790849211783e-38
1.842683 -0.639609 -4.873559 1.880790849211783e-38
1.844976 -0.625157 -4.879623 1.880790849211783e-38
1.848056 -0.610928 -4.887770 1.880790849211783e-38
1.838790 -0.592668 -4.863263 1.880790849211783e-38
1.841615 -0.578358 -4.870734 1.880790849211783e-38
1.850388 -0.565821 -4.893938 1.880790849211783e-38
1.850603 -0.550593 -4.894506 1.880790849211783e-38
1.849080 -0.534858 -4.890479 1.880790849211783e-38
1.843848 -0.518106 -4.876640 1.880790849211783e-38
1.845534 -0.503328 -4.881100 1.880790849211783e-38
1.841373 -0.486975 -4.870094 1.880790849211783e-38
1.844634 -0.472592 -4.878719 1.880790849211783e-38
1.846672 -0.457852 -4.884108 1.880790849211783e-38
1.843545 -0.441841 -4.875839 1.880790849211783e-38
1.846931 -0.427389 -4.884794 1.880790849211783e-38
1.840284 -0.410642 -4.867213 1.880790849211783e-38
1.841432 -0.395680 -4.870251 1.880790849211783e-38
1.845429 -0.381287 -4.880822 1.880790849211783e-38
1.844817 -0.365914 -4.879204 1.880790849211783e-38
1.841730 -0.350081 -4.871039 1.880790849211783e-38
1.846043 -0.335644 -4.882444 1.880790849211783e-38
1.847704 -0.320676 -4.886840 1.880790849211783e-38
1.841069 -0.304309 -4.869290 1.880790849211783e-38
1.845165 -0.289737 -4.880124 1.880790849211783e-38
1.842042 -0.274023 -4.871864 1.880790849211783e-38
1.844556 -0.259153 -4.878513 1.880790849211783e-38
1.844561 -0.243909 -4.878527 1.880790849211783e-38
1.845038 -0.228724 -4.879788 1.880790849211783e-38
1.849443 -0.213985 -4.891438 1.880790849211783e-38
1.840543 -0.197744 -4.867899 1.880790849211783e-38
1.847169 -0.183190 -4.885425 1.880790849211783e-38
1.842028 -0.167457 -4.871827 1.880790849211783e-38
1.840142 -0.152078 -4.866839 1.880790849211783e-38
1.846954 -0.137377 -4.884854 1.880790849211783e-38
1.842700 -0.121831 -4.873602 1.880790849211783e-38
1.848887 -0.106960 -4.889967 1.880790849211783e-38
1.842587 -0.091368 -4.873303 1.880790849211783e-38
1.848690 -0.076392 -4.889447 1.880790849211783e-38
1.842485 -0.060909 -4.873035 1.880790849211783e-38
1.839872 -0.045617 -4.866123 1.880790849211783e-38
1.840671 -0.030424 -4.868238 1.880790849211783e-38
1.849032 -0.015281 -4.890351 1.880790849211783e-38
1.844810 0.000000 -4.879184 1.880790849211783e-38
1.840825 0.015213 -4.868646 1.880790849211783e-38
1.848773 0.030558 -4.889664 1.880790849211783e-38
1.850620 0.045883 -4.894550 1.880790849211783e-38
1.846143 0.061030 -4.882709 1.880790849211783e-38
1.842674 0.076144 -4.873536 1.880790849211783e-38
1.844520 0.091464 -4.878416 1.880790849211783e-38
1.845114 0.106742 -4.879989 1.880790849211783e-38
1.846037 0.122052 -4.882428 1.880790849211783e-38
1.837652 0.136685 -4.860253 1.880790849211783e-38
1.841699 0.152206 -4.870955 1.880790849211783e-38
1.842237 0.167476 -4.872378 1.880790849211783e-38
1.843619 0.182838 -4.876034 1.880790849211783e-38
1.845299 0.198255 -4.880477 1.880790849211783e-38
1.848040 0.213823 -4.887726 1.880790849211783e-38
1.842649 0.228428 -4.873470 1.880790849211783e-38
1.847355 0.244278 -4.885914 1.880790849211783e-38
1.843047 0.258941 -4.874523 1.880790849211783e-38
1.840243 0.273755 -4.867105 1.880790849211783e-38
1.843376 0.289456 -4.875390 1.880790849211783e-38
1.843964 0.304787 -4.876947 1.880790849211783e-38
1.847556 0.320650 -4.886449 1.880790849211783e-38
1.847525 0.335914 -4.886364 1.880790849211783e-38
1.842147 0.350160 -4.872142 1.880790849211783e-38
1.844422 0.365836 -4.878158 1.880790849211783e-38
1.835897 0.379318 -4.855612 1.880790849211783e-38
1.845687 0.396594 -4.881503 1.880790849211783e-38
1.848218 0.412412 -4.888198 1.880790849211783e-38
1.845177 0.426983 -4.880154 1.880790849211783e-38
1.846730 0.442605 -4.884262 1.880790849211783e-38
1.842897 0.456916 -4.874124 1.880790849211783e-38
1.848146 0.473492 -4.888008 1.880790849211783e-38
1.848469 0.488851 -4.888863 1.880790849211783e-38
1.845544 0.503330 -4.881126 1.880790849211783e-38
1.844389 0.518258 -4.878072 1.880790849211783e-38
1.840471 0.532368 -4.867710 1.880790849211783e-38
1.845417 0.549050 -4.880789 1.880790849211783e-38
1.835743 0.561343 -4.855203 1.880790849211783e-38
1.849010 0.580681 -4.890292 1.880790849211783e-38
1.842331 0.593809 -4.872628 1.880790849211783e-38
1.840655 0.608481 -4.868195 1.880790849211783e-38
1.841955 0.624134 -4.871634 1.880790849211783e-38
1.846698 0.641003 -4.884178 1.880790849211783e-38
1.847052 0.656390 -4.885113 1.880790849211783e-38
1.845670 0.671153 -4.881460 1.880790849211783e-38
1.843696 0.685672 -4.876238 1.880790849211783e-38
1.843700 0.700911 -4.876250 1.880790849211783e-38
1.849546 0.718419 -4.891711 1.880790849211783e-38
1.845344 0.732037 -4.880596 1.880790849211783e-38
1.848725 0.748657 -4.889538 1.880790849211783e-38
1.846696 0.763097 -4.884172 1.880790849211783e-38
1.840427 0.775717 -4.867593 1.880790849211783e-38
1.843583 0.792283 -4.875938 1.880790849211783e-38
1.852133 0.811265 -4.898551 1.880790849211783e-38
1.841606 0.821874 -4.870711 1.880790849211783e-38
1.838842 0.835837 -4.863400 1.880790849211783e-38
1.841851 0.852427 -4.871359 1.880790849211783e-38
1.846663 0.869916 -4.884086 1.880790849211783e-38
1.837084 0.880586 -4.858750 1.880790849211783e-38
1.839057 0.896730 -4.863968 1.880790849211783e-38
1.840549 0.912669 -4.867914 1.880790849211783e-38
1.844464 0.929854 -4.878270 1.880790849211783e-38
1.842018 0.943844 -4.871799 1.880790849211783e-38
1.847573 0.961960 -4.886493 1.880790849211783e-38
1.845970 0.976381 -4.882253 1.880790849211783e-38
1.837111 0.986878 -4.858821 1.880790849211783e-38
1.844492 1.006086 -4.878342 1.880790849211783e-38
1.843432 1.020743 -4.875539 1.880790849211783e-38
1.838455 1.033181 -4.862377 1.880790849211783e-38
1.843056 1.050999 -4.874545 1.880790849211783e-38
1.847048 1.068540 -4.885104 1.880790849211783e-38
1.841292 1.080428 -4.869880 1.880790849211783e-38
1.836677 1.092899 -4.857675 1.880790849211783e-38
1.844925 1.113054 -4.879489 1.880790849211783e-38
1.840288 1.125465 -4.867225 1.880790849211783e-38
1.842671 1.142151 -4.873526 1.880790849211783e-38
1.845727 1.159300 -4.881610 1.880790849211783e-38
1.847137 1.175451 -4.885339 1.880790849211783e-38
1.842556 1.187764 -4.873224 1.880790849211783e-38
1.849270 1.207374 -4.890979 1.880790849211783e-38
1.843130 1.218598 -4.874741 1.880790849211783e-38
1.841045 1.232435 -4.869226 1.880790849211783e-38
1.838667 1.246039 -4.862937 1.880790849211783e-38
1.843580 1.264605 -4.875932 1.880790849211783e-38
1.836731 1.275086 -4.857816 1.880790849211783e-38
1.844464 1.295698 -4.878269 1.880790849211783e-38
1.840176 1.307894 -4.866928 1.880790849211783e-38
1.843007 1.325137 -4.874415 1.880790849211783e-38
1.845166 1.341939 -4.880126 1.880790849211783e-38
1.845736 1.357607 -4.881634 1.880790849211783e-38
1.840017 1.368608 -4.866508 1.880790849211783e-38
1.845348 1.387824 -4.880608 1.880790849211783e-38
1.846649 1.404064 -4.884049 1.880790849211783e-38
1.843951 1.417252 -4.876913 1.880790849211783e-38
1.849533 1.436827 -4.891676 1.880790849211783e-38
1.841686 1.445952 -4.870921 1.880790849211783e-38
1.844256 1.463211 -4.877719 1.880790849211783e-38
1.847988 1.481445 -4.887590 1.880790849211783e-38
1.843251 1.492881 -4.875060 1.880790849211783e-38
1.843904 1.508648 -4.876787 1.880790849211783e-38
1.844799 1.524627 -4.879155 1.880790849211783e-38
1.841879 1.537436 -4.871433 1.880790849211783e-38
1.845960 1.556099 -4.882227 1.880790849211783e-38
1.847579 1.572733 -4.886508 1.880790849211783e-38
1.838926 1.580564 -4.863622 1.880790849211783e-38
1.848303 1.603899 -4.888422 1.880790849211783e-38
1.844263 1.615635 -4.877737 1.880790849211783e-38
1.841223 1.628188 -4.869696 1.880790849211783e-38
1.840297 1.642579 -4.867248 1.880790849211783e-38
1.848358 1.665050 -4.888568 1.880790849211783e-38
1.837541 1.670492 -4.859959 1.880790849211783e-38
1.846793 1.694166 -4.884429 1.880790849211783e-38
1.844131 1.706964 -4.877388 1.880790849211783e-38
1.846855 1.724749 -4.884594 1.880790849211783e-38
1.846628 1.739799 -4.883994 1.880790849211783e-38
1.839969 1.748731 -4.866381 1.880790849211783e-38
1.851787 1.775267 -4.897636 1.880790849211783e-38
1.847163 1.786100 -4.885409 1.880790849211783e-38
1.845902 1.800136 -4.882072 1.880790849211783e-38
1.846220 1.815704 -4.882914 1.880790849211783e-38
1.843553 1.828317 -4.875859 1.880790849211783e-38
1.846986 1.846986 -4.884940 1.880790849211783e-38
1.846144 1.861401 -4.882713 1.880790849211783e-38
1.841104 1.871536 -4.869383 1.880790849211783e-38
1.847478 1.893283 -4.886240 1.880790849211783e-38
1.852055 1.913280 -4.898345 1.880790849211783e-38
1.843142 1.919305 -4.874774 1.880790849211783e-38
1.843646 1.935067 -4.876106 1.880790849211783e-38
1.084897 -1.138253 -2.845835 4.333194603576166e-39
1.099214 -1.144263 -2.883389 4.333194603576166e-39
1.108976 -1.145336 -2.908997 4.333194603576166e-39
1.117818 -1.145305 -2.932191 4.333194603576166e-39
1.126377 -1.144843 -2.954643 4.333194603576166e-39
1.135808 -1.145118 -2.979380 4.333194603576166e-39
1.138218 -1.138218 -2.985704 4.333194603576166e-39
1.147859 -1.138450 -3.010993 4.333194603576166e-39
1.164387 -1.145298 -3.054346 4.333194603576166e-39
1.170606 -1.141820 -3.070661 4.333194603576166e-39
1.183880 -1.145065 -3.105482 4.333194603576166e-39
1.186972 -1.138326 -3.113591 4.333194603576166e-39
1.198944 -1.139979 -3.144996 4.333194603576166e-39
1.210634 -1.141172 -3.175661 4.333194603576166e-39
1.226189 -1.145783 -3.216464 4.333194603576166e-39
1.238033 -1.146703 -3.247532 4.333194603576166e-39
1.246471 -1.144302 -3.269666 4.333194603576166e-39
1.254187 -1.141105 -3.289907 4.333194603576166e-39
1.269001 -1.144181 -3.328764 4.333194603576166e-39
1.276939 -1.140872 -3.349588 4.333194603576166e-39
1.286223 -1.138623 -3.373940 4.333194603576166e-39
1.294600 -1.135428 -3.395915 4.333194603576166e-39
1.307045 -1.135630 -3.428561 4.333194603576166e-39
1.322058 -1.137837 -3.467941 4.333194603576166e-39
1.340605 -1.142810 -3.516591 4.333194603576166e-39
1.351915 -1.141371 -3.546260 4.333194603576166e-39
1.362483 -1.139125 -3.573982 4.333194603576166e-39
1.383626 -1.145461 -3.629442 4.333194603576166e-39
1.389611 -1.139025 -3.645140 4.333194603576166e-39
1.405383 -1.140434 -3.686513 4.333194603576166e-39
1.420526 -1.141078 -3.726235 4.333194603576166e-39
1.440865 -1.145606 -3.779588 4.333194603576166e-39
1.446999 -1.138622 -3.795677 4.333194603576166e-39
1.464947 -1.140737 -3.842758 4.333194603576166e-39
1.480357 -1.140603 -3.883181 4.333194603576166e-39
1.495957 -1.140360 -3.924101 4.333194603576166e-39
1.513600 -1.141403 -3.970381 4.333194603576166e-39
1.530872 -1.141880 -4.015688 4.333194603576166e-39
1.543487 -1.138638 -4.048779 4.333194603576166e-39
1.568510 -1.144241 -4.114418 4.333194603576166e-39
1.583158 -1.141950 -4.152842 4.333194603576166e-39
1.603666 -1.143598 -4.206639 4.333194603576166e-39
1.618060 -1.140600 -4.244394 4.333194603576166e-39
1.644404 -1.145692 -4.313500 4.333194603576166e-39
1.652891 -1.138056 -4.335761 4.333194603576166e-39
1.679503 -1.142613 -4.405568 4.333194603576166e-39
1.696608 -1.140343 -4.450436 4.333194603576166e-39
1.719326 -1.141520 -4.510029 4.333194603576166e-39
1.741113 -1.141713 -4.567179 4.333194603576166e-39
1.765405 -1.143172 -4.630901 4.333194603576166e-39
1.783472 -1.140253 -4.678293 4.333194603576166e-39
1.810050 -1.142409 -4.748011 4.333194603576166e-39
1.830336 -1.140209 -4.801223 4.333194603576166e-39
1.855110 -1.140436 -4.866209 4.333194603576166e-39
1.857056 -1.126411 -4.871313 1.880790849211783e-38
1.857750 -1.111604 -4.873134 1.880790849211783e-38
1.857140 -1.096017 -4.871534 1.880790849211783e-38
1.857537 -1.081026 -4.872575 1.880790849211783e-38
1.858639 -1.066432 -4.875466 1.880790849211783e-38
1.857917 -1.050789 -4.873573 1.880790849211783e-38
1.853424 -1.033056 -4.861788 1.880790849211783e-38
1.852219 -1.017202 -4.858624 1.880790849211783e-38
1.858746 -1.005551 -4.875747 1.880790849211783e-38
1.853489 -0.987514 -4.861956 1.880790849211783e-38
1.856968 -0.974147 -4.871084 1.880790849211783e-38
1.859282 -0.960121 -4.877153 1.880790849211783e-38
1.852987 -0.941682 -4.860641 1.880790849211783e-38
1.855682 -0.927841 -4.867712 1.880790849211783e-38
1.854820 -0.912207 -4.865449 1.880790849211783e-38
1.859409 -0.899223 -4.877488 1.880790849211783e-38
1.860596 -0.884546 -4.880601 1.880790849211783e-38
1.860302 -0.869157 -4.879829 1.880790849211783e-38
1.858361 -0.853018 -4.874737 1.880790849211783e-38
1.859896 -0.838478 -4.878765 1.880790849211783e-38
1.859665 -0.823130 -4.878158 1.880790849211783e-38
1.858734 -0.807483 -4.875716 1.880790849211783e-38
1.863408 -0.794239 -4.887976 1.880790849211783e-38
1.854614 -0.775289 -4.864908 1.880790849211783e-38
1.865208 -0.764429 -4.892697 1.880790849211783e-38
1.854425 -0.744810 -4.864412 1.880790849211783e-38
1.853161 -0.729113 -4.861097 1.880790849211783e-38
1.857515 -0.715600 -4.872517 1.880790849211783e-38
1.861916 -0.702034 -4.884063 1.880790849211783e-38
1.857931 -0.685302 -4.873610 1.880790849211783e-38
1.862193 -0.671611 -4.884789 1.880790849211783e-38
1.861650 -0.656155 -4.883364 1.880790849211783e-38
1.860291 -0.640428 -4.879799 1.880790849211783e-38
1.858461 -0.624565 -4.874998 1.880790849211783e-38
1.859150 -0.609558 -4.876808 1.880790849211783e-38
1.865182 -0.596247 -4.892629 1.880790849211783e-38
1.858610 -0.578911 -4.875390 1.880790849211783e-38
1.857907 -0.563464 -4.873548 1.880790849211783e-38
1.862986 -0.549734 -4.886870 1.880790849211783e-38
1.856610 -0.532634 -4.870144 1.880790849211783e-38
1.858038 -0.517814 -4.873889 1.880790849211783e-38
1.859769 -0.503052 -4.878431 1.880790849211783e-38
1.861252 -0.488197 -4.882321 1.880790849211783e-38
1.860159 -0.472663 -4.879454 1.880790849211783e-38
1.868219 -0.459398 -4.900597 1.880790849211783e-38
1.849222 -0.439569 -4.850764 1.880790849211783e-38
1.864334 -0.427880 -4.890406 1.880790849211783e-38
1.861240 -0.411914 -4.882290 1.880790849211783e-38
1.852077 -0.394705 -4.858253 1.880790849211783e-38
1.859001 -0.380943 -4.876416 1.880790849211783e-38
1.859178 -0.365740 -4.876881 1.880790849211783e-38
1.858111 -0.350300 -4.874082 1.880790849211783e-38
1.858534 -0.335145 -4.875190 1.880790849211783e-38
1.862096 -0.320525 -4.884534 1.880790849211783e-38
1.855294 -0.304146 -4.866691 1.880790849211783e-38
1.860688 -0.289779 -4.880843 1.880790849211783e-38
1.856536 -0.273915 -4.869951 1.880790849211783e-38
1.862808 -0.259572 -4.886401 1.880790849211783e-38
1.856782 -0.243512 -4.870596 1.880790849211783e-38
1.858191 -0.228466 -4.874291 1.880790849211783e-38
1.861118 -0.213571 -4.881968 1.880790849211783e-38
1.863064 -0.198523 -4.887074 1.880790849211783e-38
1.861191 -0.183068 -4.882162 1.880790849211783e-38
1.856087 -0.167352 -4.868772 1.880790849211783e-38
1.861884 -0.152613 -4.883978 1.880790849211783e-38
1.858739 -0.137120 -4.875729 1.880790849211783e-38
1.861569 -0.122070 -4.883153 1.880790849211783e-38
1.863259 -0.106908 -4.887585 1.880790849211783e-38
1.860587 -0.091504 -4.880576 1.880790849211783e-38
1.857496 -0.076127 -4.872468 1.880790849211783e-38
1.863027 -0.061083 -4.886977 1.880790849211783e-38
1.864303 -0.045844 -4.890324 1.880790849211783e-38
1.861631 -0.030519 -4.883315 1.880790849211783e-38
1.848654 -0.015153 -4.849276 1.880790849211783e-38
1.858641 0.000000 -4.875471 1.880790849211783e-38
1.853147 0.015190 -4.861062 1.880790849211783e-38
1.860573 0.030501 -4.880539 1.880790849211783e-38
1.859595 0.045728 -4.877973 1.880790849211783e-38
1.857524 0.060902 -4.872541 1.880790849211783e-38
1.860354 0.076244 -4.879966 1.880790849211783e-38
1.853242 0.091143 -4.861310 1.880790849211783e-38
1.860115 0.106728 -4.879339 1.880790849211783e-38
1.857105 0.121777 -4.871443 1.880790849211783e-38
1.857261 0.137011 -4.871852 1.880790849211783e-38
1.854458 0.152005 -4.864499 1.880790849211783e-38
1.856663 0.167404 -4.870282 1.880790849211783e-38
1.857036 0.182659 -4.871260 1.880790849211783e-38
1.860299 0.198229 -4.879820 1.880790849211783e-38
1.861218 0.213582 -4.882232 1.880790849211783e-38
1.858845 0.228547 -4.876007 1.880790849211783e-38
1.863188 0.244352 -4.887399 1.880790849211783e-38
1.862518 0.259531 -4.885641 1.880790849211783e-38
1.862534 0.274800 -4.885684 1.880790849211783e-38
1.862056 0.289992 -4.884430 1.880790849211783e-38
1.858735 0.304711 -4.875718 1.880790849211783e-38
1.858159 0.319847 -4.874207 1.880790849211783e-38
1.860221 0.335450 -4.879617 1.880790849211783e-38
1.861320 0.350905 -4.882500 1.880790849211783e-38
1.856580 0.365229 -4.870065 1.880790849211783e-38
1.860028 0.381153 -4.879109 1.880790849211783e-38
1.855705 0.395478 -4.867771 1.880790849211783e-38
1.865160 0.412781 -4.892571 1.880790849211783e-38
1.863359 0.427656 -4.887847 1.880790849211783e-38
1.862208 0.442656 -4.884829 1.880790849211783e-38
1.859723 0.457309 -4.878309 1.880790849211783e-38
1.854983 0.471348 -4.865877 1.880790849211783e-38
1.860251 0.487935 -4.879694 1.880790849211783e-38
1.858678 0.502757 -4.875569 1.880790849211783e-38
1.864455 0.519602 -4.890723 1.880790849211783e-38
1.860855 0.533852 -4.881279 1.880790849211783e-38
1.859265 0.548636 -4.877109 1.880790849211783e-38
1.861639 0.564596 -4.883337 1.880790849211783e-38
1.862248 0.580044 -4.884933 1.880790849211783e-38
1.856679 0.593529 -4.870326 1.880790849211783e-38
1.857250 0.608935 -4.871823 1.880790849211783e-38
1.862059 0.625774 -4.884438 1.880790849211783e-38
1.860624 0.640543 -4.880674 1.880790849211783e-38
1.854379 0.653593 -4.864292 1.880790849211783e-38
1.857722 0.669998 -4.873061 1.880790849211783e-38
1.858167 0.685390 -4.874229 1.880790849211783e-38
1.859033 0.700947 -4.876501 1.880790849211783e-38
1.858393 0.715938 -4.874821 1.880790849211783e-38
1.854179 0.729513 -4.863769 1.880790849211783e-38
1.858078 0.746277 -4.873996 1.880790849211783e-38
1.858116 0.761523 -4.874095 1.880790849211783e-38
1.859332 0.777262 -4.877285 1.880790849211783e-38
1.858696 0.792231 -4.875617 1.880790849211783e-38
1.853887 0.805377 -4.863000 1.880790849211783e-38
1.862262 0.824280 -4.884969 1.880790849211783e-38
1.853108 0.835418 -4.860958 1.880790849211783e-38
1.862826 0.855068 -4.886450 1.880790849211783e-38
1.860853 0.869415 -4.881274 1.880790849211783e-38
1.859750 0.884144 -4.878382 1.880790849211783e-38
1.861472 0.900220 -4.882898 1.880790849211783e-38
1.861352 0.915419 -4.882585 1.880790849211783e-38
1.854715 0.927358 -4.865175 1.880790849211783e-38
1.862997 0.946769 -4.886898 1.880790849211783e-38
1.855078 0.957950 -4.866126 1.880790849211783e-38
1.867768 0.979813 -4.899413 1.880790849211783e-38
1.862402 0.992263 -4.885337 1.880790849211783e-38
1.857451 1.004851 -4.872351 1.880790849211783e-38
1.853757 1.018047 -4.862660 1.880790849211783e-38
1.857088 1.035098 -4.871397 1.880790849211783e-38
1.859545 1.051710 -4.877845 1.880790849211783e-38
1.864486 1.069787 -4.890803 1.880790849211783e-38
1.855832 1.080033 -4.868103 1.880790849211783e-38
1.853629 1.093945 -4.862325 1.880790849211783e-38
1.856169 1.110658 -4.868987 1.880790849211783e-38
1.863945 1.130590 -4.889386 1.880790849211783e-38
1.863477 1.145580 -4.888157 1.880790849211783e-38
1.860149 1.158782 -4.879428 1.880790849211783e-38
1.857176 1.172152 -4.871628 1.880790849211783e-38
1.862866 1.191013 -4.886554 1.880790849211783e-38
1.858544 1.203483 -4.875218 1.880790849211783e-38
1.860063 1.219713 -4.879202 1.880790849211783e-38
1.856011 1.232270 -4.868574 1.880790849211783e-38
1.857610 1.248557 -4.872767 1.880790849211783e-38
1.858979 1.264715 -4.876359 1.880790849211783e-38
1.859219 1.280118 -4.876987 1.880790849211783e-38
1.860946 1.296561 -4.881518 1.880790849211783e-38
1.862487 1.312900 -4.885559 1.880790849211783e-38
1.859378 1.325950 -4.877406 1.880790849211783e-38
1.862147 1.343188 -4.884670 1.880790849211783e-38
1.859546 1.356554 -4.877846 1.880790849211783e-38
1.860936 1.372821 -4.881491 1.880790849211783e-38
1.854513 1.383284 -4.864644 1.880790849211783e-38
1.859206 1.402025 -4.876955 1.880790849211783e-38
1.859958 1.417837 -4.878926 1.880790849211783e-38
1.857057 1.430847 -4.871316 1.880790849211783e-38
1.860309 1.448601 -4.879848 1.880790849211783e-38
1.860792 1.464230 -4.881114 1.880790849211783e-38
1.861554 1.480088 -4.883112 1.880790849211783e-38
1.858796 1.493131 -4.875878 1.880790849211783e-38
1.861950 1.510927 -4.884152 1.880790849211783e-38
1.861726 1.526005 -4.883564 1.880790849211783e-38
1.857475 1.537746 -4.872413 1.880790849211783e-38
1.869042 1.562641 -4.902754 1.880790849211783e-38
1.860520 1.570767 -4.880400 1.880790849211783e-38
1.863780 1.588796 -4.888951 1.880790849211783e-38
1.864052 1.604307 -4.889665 1.880790849211783e-38
1.855274 1.611959 -4.866640 1.880790849211783e-38
1.866485 1.636999 -4.896049 1.880790849211783e-38
1.864398 1.650451 -4.890574 1.880790849211783e-38
1.859334 1.661208 -4.877289 1.880790849211783e-38
1.855294 1.672806 -4.866693 1.880790849211783e-38
1.858497 1.690927 -4.875093 1.880790849211783e-38
1.858717 1.706363 -4.875671 1.880790849211783e-38
1.864071 1.726558 -4.889717 1.880790849211783e-38
1.856034 1.734327 -4.868633 1.880790849211783e-38
1.857532 1.750953 -4.872564 1.880790849211783e-38
1.859268 1.767829 -4.877118 1.880790849211783e-38
1.861838 1.785533 -4.883858 1.880790849211783e-38
1.857991 1.797074 -4.873768 1.880790849211783e-38
1.858057 1.812366 -4.873938 1.880790849211783e-38
1.848931 1.818620 -4.850001 1.880790849211783e-38
1.860517 1.845267 -4.880393 1.880790849211783e-38
1.864054 1.864054 -4.889670 1.880790849211783e-38
1.861558 1.876816 -4.883123 1.880790849211783e-38
1.856101 1.886529 -4.868809 1.880790849211783e-38
1.862550 1.908351 -4.885726 1.880790849211783e-38
1.858270 1.919196 -4.874497 1.880790849211783e-38
1.861034 1.937306 -4.881749 1.880790849211783e-38
1.096482 -1.141054 -2.852839 4.333194603576166e-39
1.104776 -1.140703 -2.874418 4.333194603576166e-39
1.109995 -1.137068 -2.887999 4.333194603576166e-39
1.116799 -1.134958 -2.905700 4.333194603576166e-39
1.134718 -1.143943 -2.952322 4.333194603576166e-39
1.134591 -1.134591 -2.951993 4.333194603576166e-39
1.146233 -1.136914 -2.982282 4.333194603576166e-39
1.159524 -1.140671 -3.016865 4.333194603576166e-39
1.169745 -1.141214 -3.043456 4.333194603576166e-39
1.181247 -1.142832 -3.073382 4.333194603576166e-39
1.182644 -1.134570 -3.077018 4.333194603576166e-39
1.195432 -1.137118 -3.110289 4.333194603576166e-39
1.207474 -1.138756 -3.141621 4.333194603576166e-39
1.222143 -1.142655 -3.179787 4.333194603576166e-39
1.225968 -1.136263 -3.189738 4.333194603576166e-39
1.242543 -1.141523 -3.232862 4.333194603576166e-39
1.255933 -1.143614 -3.267700 4.333194603576166e-39
1.259254 -1.136400 -3.276341 4.333194603576166e-39
1.278214 -1.143118 -3.325671 4.333194603576166e-39
1.290428 -1.143550 -3.357451 4.333194603576166e-39
1.304465 -1.145384 -3.393972 4.333194603576166e-39
1.309438 -1.139104 -3.406911 4.333194603576166e-39
1.326186 -1.142892 -3.450486 4.333194603576166e-39
1.333770 -1.138584 -3.470219 4.333194603576166e-39
1.349977 -1.141444 -3.512386 4.333194603576166e-39
1.362900 -1.141290 -3.546008 4.333194603576166e-39
1.372309 -1.138012 -3.570489 4.333194603576166e-39
1.391682 -1.142763 -3.620894 4.333194603576166e-39
1.402720 -1.140423 -3.649614 4.333194603576166e-39
1.417839 -1.141187 -3.688949 4.333194603576166e-39
1.434041 -1.142569 -3.731104 4.333194603576166e-39
1.448497 -1.142311 -3.768717 4.333194603576166e-39
1.463920 -1.142572 -3.808844 4.333194603576166e-39
1.476369 -1.140285 -3.841233 4.333194603576166e-39
1.492278 -1.140440 -3.882627 4.333194603576166e-39
1.509568 -1.141381 -3.927612 4.333194603576166e-39
1.521751 -1.138220 -3.959310 4.333194603576166e-39
1.543274 -1.141772 -4.015309 4.333194603576166e-39
1.560827 -1.142069 -4.060979 4.333194603576166e-39
1.577464 -1.141417 -4.104264 4.333194603576166e-39
1.598293 -1.143494 -4.158458 4.333194603576166e-39
1.611764 -1.140028 -4.193505 4.333194603576166e-39
1.630269 -1.139863 -4.241652 4.333194603576166e-39
1.650939 -1.140893 -4.295433 4.333194603576166e-39
1.668440 -1.139423 -4.340968 4.333194603576166e-39
1.692901 -1.142364 -4.404609 4.333194603576166e-39
1.706628 -1.137752 -4.440325 4.333194603576166e-39
1.727218 -1.137436 -4.493895 4.333194603576166e-39
1.755299 -1.141658 -4.566958 4.333194603576166e-39
1.775453 -1.140332 -4.619395 4.333194603576166e-39
1.803139 -1.143454 -4.691428 4.333194603576166e-39
1.823921 -1.141804 -4.745500 4.333194603576166e-39
1.849218 -1.142606 -4.811318 4.333194603576166e-39
1.870996 -1.140851 -4.867979 4.333194603576166e-39
1.867780 -1.123705 -4.859612 1.880790849211783e-38
1.876962 -1.113969 -4.883502 1.880790849211783e-38
1.875307 -1.097741 -4.879196 1.880790849211783e-38
1.877519 -1.083771 -4.884952 1.880790849211783e-38
1.871886 -1.065301 -4.870294 1.880790849211783e-38
1.874178 -1.051368 -4.876257 1.880790849211783e-38
1.874265 -1.036179 -4.876485 1.880790849211783e-38
1.867780 -1.017409 -4.859613 1.880790849211783e-38
1.876149 -1.006714 -4.881385 1.880790849211783e-38
1.882131 -0.994622 -4.896950 1.880790849211783e-38
1.874599 -0.975401 -4.877352 1.880790849211783e-38
1.868516 -0.957045 -4.861526 1.880790849211783e-38
1.878614 -0.946944 -4.887799 1.880790849211783e-38
1.874215 -0.929489 -4.876355 1.880790849211783e-38
1.868762 -0.911591 -4.862168 1.880790849211783e-38
1.868368 -0.896209 -4.861142 1.880790849211783e-38
1.870249 -0.881906 -4.866036 1.880790849211783e-38
1.879130 -0.870816 -4.889142 1.880790849211783e-38
1.872125 -0.852350 -4.870917 1.880790849211783e-38
1.874195 -0.838055 -4.876303 1.880790849211783e-38
1.873165 -0.822365 -4.873621 1.880790849211783e-38
1.875332 -0.808070 -4.879261 1.880790849211783e-38
1.874210 -0.792349 -4.876341 1.880790849211783e-38
1.872676 -0.776475 -4.872350 1.880790849211783e-38
1.873483 -0.761578 -4.874449 1.880790849211783e-38
1.873108 -0.746198 -4.873476 1.880790849211783e-38
1.871657 -0.730403 -4.869698 1.880790849211783e-38
1.869660 -0.714423 -4.864501 1.880790849211783e-38
1.876853 -0.701913 -4.883219 1.880790849211783e-38
1.880158 -0.687863 -4.891818 1.880790849211783e-38
1.873644 -0.670247 -4.874868 1.880790849211783e-38
1.873198 -0.654858 -4.873707 1.880790849211783e-38
1.873585 -0.639761 -4.874715 1.880790849211783e-38
1.872323 -0.624108 -4.871431 1.880790849211783e-38
1.873225 -0.609179 -4.873780 1.880790849211783e-38
1.872201 -0.593625 -4.871113 1.880790849211783e-38
1.871635 -0.578229 -4.869642 1.880790849211783e-38
1.873056 -0.563440 -4.873340 1.880790849211783e-38
1.875828 -0.549023 -4.880550 1.880790849211783e-38
1.876686 -0.534016 -4.882784 1.880790849211783e-38
1.873924 -0.517995 -4.875598 1.880790849211783e-38
1.871749 -0.502177 -4.869938 1.880790849211783e-38
1.878039 -0.488595 -4.886303 1.880790849211783e-38
1.877080 -0.473085 -4.883808 1.880790849211783e-38
1.870504 -0.456220 -4.866699 1.880790849211783e-38
1.879274 -0.443081 -4.889516 1.880790849211783e-38
1.874542 -0.426725 -4.877204 1.880790849211783e-38
1.876755 -0.411971 -4.882964 1.880790849211783e-38
1.884687 -0.398389 -4.903601 1.880790849211783e-38
1.875981 -0.381297 -4.880949 1.880790849211783e-38
1.876603 -0.366166 -4.882567 1.880790849211783e-38
1.871582 -0.349971 -4.869503 1.880790849211783e-38
1.874381 -0.335255 -4.876786 1.880790849211783e-38
1.874220 -0.319989 -4.876368 1.880790849211783e-38
1.875059 -0.304888 -4.878550 1.880790849211783e-38
1.880676 -0.290511 -4.893165 1.880790849211783e-38
1.877239 -0.274718 -4.884222 1.880790849211783e-38
1.876426 -0.259343 -4.882107 1.880790849211783e-38
1.874053 -0.243779 -4.875931 1.880790849211783e-38
1.874526 -0.228601 -4.877163 1.880790849211783e-38
1.872993 -0.213186 -4.873174 1.880790849211783e-38
1.873067 -0.197966 -4.873367 1.880790849211783e-38
1.875663 -0.182991 -4.880121 1.880790849211783e-38
1.868180 -0.167073 -4.860653 1.880790849211783e-38
1.873734 -0.152336 -4.875102 1.880790849211783e-38
1.877764 -0.137397 -4.885588 1.880790849211783e-38
1.879885 -0.122269 -4.891105 1.880790849211783e-38
1.878085 -0.106883 -4.886425 1.880790849211783e-38
1.876059 -0.091515 -4.881154 1.880790849211783e-38
1.869246 -0.075986 -4.863425 1.880790849211783e-38
1.872303 -0.060888 -4.871380 1.880790849211783e-38
1.875243 -0.045738 -4.879031 1.880790849211783e-38
1.871199 -0.030426 -4.868506 1.880790849211783e-38
1.877188 -0.015262 -4.884089 1.880790849211783e-38
1.873145 0.000000 -4.873570 1.880790849211783e-38
1.875869 0.015251 -4.880656 1.880790849211783e-38
1.872263 0.030443 -4.871274 1.880790849211783e-38
1.871616 0.045649 -4.869594 1.880790849211783e-38
1.871638 0.060866 -4.869649 1.880790849211783e-38
1.874918 0.076216 -4.878182 1.880790849211783e-38
1.876977 0.091560 -4.883540 1.880790849211783e-38
1.879142 0.106943 -4.889173 1.880790849211783e-38
1.874857 0.121942 -4.878026 1.880790849211783e-38
1.876565 0.137310 -4.882469 1.880790849211783e-38
1.873508 0.152318 -4.874515 1.880790849211783e-38
1.872491 0.167459 -4.871869 1.880790849211783e-38
1.877666 0.183187 -4.885334 1.880790849211783e-38
1.880339 0.198735 -4.892288 1.880790849211783e-38
1.880959 0.214093 -4.893900 1.880790849211783e-38
1.873415 0.228465 -4.874273 1.880790849211783e-38
1.879769 0.244523 -4.890804 1.880790849211783e-38
1.875741 0.259249 -4.880326 1.880790849211783e-38
1.872178 0.273977 -4.871054 1.880790849211783e-38
1.867074 0.288410 -4.857776 1.880790849211783e-38
1.868554 0.303830 -4.861625 1.880790849211783e-38
1.870018 0.319271 -4.865435 1.880790849211783e-38
1.878098 0.335920 -4.886456 1.880790849211783e-38
1.878136 0.351196 -4.886557 1.880790849211783e-38
1.873724 0.365605 -4.875078 1.880790849211783e-38
1.873085 0.380708 -4.873414 1.880790849211783e-38
1.876989 0.396762 -4.883571 1.880790849211783e-38
1.879715 0.412620 -4.890665 1.880790849211783e-38
1.866101 0.424803 -4.855242 1.880790849211783e-38
1.875878 0.442280 -4.880681 1.880790849211783e-38
1.877276 0.457872 -4.884319 1.880790849211783e-38
1.875376 0.472656 -4.879376 1.880790849211783e-38
1.872502 0.487155 -4.871898 1.880790849211783e-38
1.880258 0.504460 -4.892078 1.880790849211783e-38
1.872778 0.517678 -4.872615 1.880790849211783e-38
1.874536 0.533404 -4.877188 1.880790849211783e-38
1.874576 0.548656 -4.877293 1.880790849211783e-38
1.874723 0.563941 -4.877676 1.880790849211783e-38
1.876691 0.579791 -4.882797 1.880790849211783e-38
1.870598 0.593116 -4.866943 1.880790849211783e-38
1.873285 0.609199 -4.873936 1.880790849211783e-38
1.876929 0.625643 -4.883417 1.880790849211783e-38
1.870237 0.638618 -4.866005 1.880790849211783e-38
1.871815 0.654374 -4.870110 1.880790849211783e-38
1.869084 0.668615 -4.863004 1.880790849211783e-38
1.871747 0.684785 -4.869933 1.880790849211783e-38
1.871822 0.700031 -4.870129 1.880790849211783e-38
1.871083 0.714967 -4.868206 1.880790849211783e-38
1.869810 0.729682 -4.864892 1.880790849211783e-38
1.873080 0.746187 -4.873403 1.880790849211783e-38
1.871593 0.760810 -4.869533 1.880790849211783e-38
1.872454 0.776383 -4.871773 1.880790849211783e-38
1.876261 0.793216 -4.881678 1.880790849211783e-38
1.873302 0.807195 -4.873980 1.880790849211783e-38
1.875638 0.823451 -4.880056 1.880790849211783e-38
1.877429 0.839501 -4.884717 1.880790849211783e-38
1.874820 0.853577 -4.877929 1.880790849211783e-38
1.875752 0.869251 -4.880352 1.880790849211783e-38
1.881014 0.886983 -4.894045 1.880790849211783e-38
1.871917 0.897912 -4.870376 1.880790849211783e-38
1.878152 0.916172 -4.886598 1.880790849211783e-38
1.875627 0.930189 -4.880028 1.880790849211783e-38
1.877968 0.946618 -4.886118 1.880790849211783e-38
1.871534 0.958590 -4.869378 1.880790849211783e-38
1.880221 0.978326 -4.891981 1.880790849211783e-38
1.872841 0.989713 -4.872780 1.880790849211783e-38
1.879248 1.008377 -4.889450 1.880790849211783e-38
1.876938 1.022397 -4.883440 1.880790849211783e-38
1.878257 1.038386 -4.886871 1.880790849211783e-38
1.876565 1.052707 -4.882467 1.880790849211783e-38
1.870100 1.064284 -4.865647 1.880790849211783e-38
1.876124 1.082966 -4.881322 1.880790849211783e-38
1.877711 1.099148 -4.885449 1.880790849211783e-38
1.868990 1.109238 -4.862761 1.880790849211783e-38
1.873185 1.126957 -4.873676 1.880790849211783e-38
1.873736 1.142522 -4.875109 1.880790849211783e-38
1.872222 1.156820 -4.871170 1.880790849211783e-38
1.871189 1.171394 -4.868480 1.880790849211783e-38
1.877292 1.190478 -4.884361 1.880790849211783e-38
1.876857 1.205461 -4.883229 1.880790849211783e-38
1.871928 1.217514 -4.870405 1.880790849211783e-38
1.871292 1.232315 -4.868750 1.880790849211783e-38
1.881712 1.254475 -4.895861 1.880790849211783e-38
1.876444 1.266219 -4.882154 1.880790849211783e-38
1.874914 1.280429 -4.878172 1.880790849211783e-38
1.872463 1.293978 -4.871796 1.880790849211783e-38
1.876329 1.311905 -4.881854 1.880790849211783e-38
1.874341 1.325754 -4.876683 1.880790849211783e-38
1.873755 1.340573 -4.875157 1.880790849211783e-38
1.879341 1.359848 -4.889691 1.880790849211783e-38
1.875644 1.372422 -4.880072 1.880790849211783e-38
1.875090 1.387262 -4.878632 1.880790849211783e-38
1.872708 1.400725 -4.872435 1.880790849211783e-38
1.876745 1.419002 -4.882936 1.880790849211783e-38
1.877511 1.434846 -4.884930 1.880790849211783e-38
1.875822 1.448806 -4.880535 1.880790849211783e-38
1.873815 1.462490 -4.875315 1.880790849211783e-38
1.868695 1.473686 -4.861991 1.880790849211783e-38
1.877733 1.496080 -4.885509 1.880790849211783e-38
1.876130 1.510056 -4.881337 1.880790849211783e-38
1.876245 1.525402 -4.881635 1.880790849211783e-38
1.877485 1.541675 -4.884864 1.880790849211783e-38
1.870446 1.551102 -4.866549 1.880790849211783e-38
1.874157 1.569416 -4.876204 1.880790849211783e-38
1.868610 1.579963 -4.861772 1.880790849211783e-38
1.875150 1.600738 -4.878787 1.880790849211783e-38
1.872845 1.613997 -4.872791 1.880790849211783e-38
1.872792 1.629176 -4.872651 1.880790849211783e-38
1.875686 1.646944 -4.880182 1.880790849211783e-38
1.874063 1.660755 -4.875958 1.880790849211783e-38
1.875290 1.677088 -4.879150 1.880790849211783e-38
1.878217 1.694976 -4.886766 1.880790849211783e-38
1.878899 1.710867 -4.888540 1.880790849211783e-38
1.874682 1.722269 -4.877570 1.880790849211783e-38
1.866695 1.730108 -4.856790 1.880790849211783e-38
1.869077 1.747511 -4.862987 1.880790849211783e-38
1.873597 1.766969 -4.874745 1.880790849211783e-38
1.876369 1.784838 -4.881958 1.880790849211783e-38
1.877503 1.801182 -4.884909 1.880790849211783e-38
1.875996 1.814988 -4.880988 1.880790849211783e-38
1.880102 1.834246 -4.891672 1.880790849211783e-38
1.876484 1.845973 -4.882259 1.880790849211783e-38
1.872632 1.857407 -4.872236 1.880790849211783e-38
1.872016 1.872016 -4.870633 1.880790849211783e-38
1.878080 1.893349 -4.886411 1.880790849211783e-38
1.873590 1.904055 -4.874730 1.880790849211783e-38
1.872530 1.918201 -4.871969 1.880790849211783e-38
1.878271 1.939353 -4.886908 1.880790849211783e-38
1.111251 -1.147098 -2.867950 4.333194603576166e-39
1.111754 -1.138651 -2.869248 4.333194603576166e-39
1.127759 -1.145949 -2.910554 4.333194603576166e-39
1.133163 -1.142302 -2.924501 4.333194603576166e-39
1.143067 -1.143067 -2.950060 4.333194603576166e-39
1.153095 -1.143796 -2.975942 4.333194603576166e-39
1.161465 -1.142732 -2.997544 4.333194603576166e-39
1.172878 -1.144502 -3.026997 4.333194603576166e-39
1.176363 -1.138416 -3.035992 4.333194603576166e-39
1.187289 -1.139414 -3.064189 4.333194603576166e-39
1.196641 -1.138739 -3.088327 4.333194603576166e-39
1.206770 -1.138646 -3.114467 4.333194603576166e-39
1.219780 -1.141084 -3.148044 4.333194603576166e-39
1.230773 -1.141443 -3.176416 4.333194603576166e-39
1.243310 -1.143043 -3.208771 4.333194603576166e-39
1.247404 -1.136747 -3.219337 4.333194603576166e-39
1.261425 -1.139352 -3.255523 4.333194603576166e-39
1.271456 -1.138158 -3.281410 4.333194603576166e-39
1.286345 -1.141112 -3.319837 4.333194603576166e-39
1.302025 -1.144522 -3.360305 4.333194603576166e-39
1.308990 -1.140088 -3.378279 4.333194603576166e-39
1.321142 -1.140018 -3.409642 4.333194603576166e-39
1.328002 -1.135227 -3.427346 4.333194603576166e-39
1.345763 -1.139557 -3.473185 4.333194603576166e-39
1.356738 -1.137909 -3.501509 4.333194603576166e-39
1.380031 -1.146316 -3.561624 4.333194603576166e-39
1.386240 -1.140294 -3.577649 4.333194603576166e-39
1.398114 -1.138786 -3.608294 4.333194603576166e-39
1.411597 -1.138384 -3.643090 4.333194603576166e-39
1.431088 -1.142562 -3.693394 4.333194603576166e-39
1.448747 -1.144978 -3.738969 4.333194603576166e-39
1.458174 -1.140668 -3.763297 4.333194603576166e-39
1.471292 -1.139064 -3.797153 4.333194603576166e-39
1.492044 -1.143098 -3.850711 4.333194603576166e-39
1.508749 -1.143729 -3.893823 4.333194603576166e-39
1.521503 -1.141127 -3.926740 4.333194603576166e-39
1.536925 -1.140299 -3.966540 4.333194603576166e-39
1.560618 -1.145293 -4.027689 4.333194603576166e-39
1.573466 -1.142032 -4.060847 4.333194603576166e-39
1.592952 -1.143328 -4.111136 4.333194603576166e-39
1.605682 -1.139516 -4.143992 4.333194603576166e-39
1.625121 -1.140206 -4.194160 4.333194603576166e-39
1.649390 -1.143932 -4.256794 4.333194603576166e-39
1.665938 -1.141974 -4.299502 4.333194603576166e-39
1.689806 -1.144707 -4.361099 4.333194603576166e-39
1.706431 -1.142208 -4.404006 4.333194603576166e-39
1.724742 -1.140555 -4.451265 4.333194603576166e-39
1.751705 -1.144258 -4.520850 4.333194603576166e-39
1.773649 -1.144290 -4.577486 4.333194603576166e-39
1.789036 -1.139789 -4.617197 4.333194603576166e-39
1.806357 -1.136257 -4.661900 4.333194603576166e-39
1.835824 -1.139988 -4.737950 4.333194603576166e-39
1.859386 -1.139624 -4.798759 4.333194603576166e-39
1.891135 -1.143831 -4.880695 4.333194603576166e-39
1.890106 -1.127966 -4.878040 1.880790849211783e-38
1.889692 -1.112480 -4.876972 1.880790849211783e-38
1.891876 -1.098508 -4.882607 1.880790849211783e-38
1.885293 -1.079482 -4.865618 1.880790849211783e-38
1.889160 -1.066461 -4.875598 1.880790849211783e-38
1.885931 -1.049429 -4.867266 1.880790849211783e-38
1.890051 -1.036480 -4.877899 1.880790849211783e-38
1.890488 -1.021473 -4.879025 1.880790849211783e-38
1.883964 -1.002755 -4.862189 1.880790849211783e-38
1.887412 -0.989369 -4.871087 1.880790849211783e-38
1.891618 -0.976319 -4.881944 1.880790849211783e-38
1.891879 -0.961197 -4.882617 1.880790849211783e-38
1.890795 -0.945397 -4.879818 1.880790849211783e-38
1.888191 -0.928868 -4.873099 1.880790849211783e-38
1.890605 -0.914809 -4.879328 1.880790849211783e-38
1.893236 -0.900814 -4.886118 1.880790849211783e-38
1.893150 -0.885505 -4.885896 1.880790849211783e-38
1.893446 -0.870374 -4.886660 1.880790849211783e-38
1.896684 -0.856567 -4.895017 1.880790849211783e-38
1.895628 -0.840803 -4.892293 1.880790849211783e-38
1.887311 -0.821894 -4.870828 1.880790849211783e-38
1.888188 -0.807048 -4.873092 1.880790849211783e-38
1.893482 -0.794041 -4.886755 1.880790849211783e-38
1.894775 -0.779303 -4.890091 1.880790849211783e-38
1.898464 -0.765510 -4.899612 1.880790849211783e-38
1.893048 -0.748059 -4.885634 1.880790849211783e-38
1.892308 -0.732506 -4.883722 1.880790849211783e-38
1.888049 -0.715631 -4.872732 1.880790849211783e-38
1.889724 -0.701027 -4.877056 1.880790849211783e-38
1.893870 -0.687291 -4.887754 1.880790849211783e-38
1.891674 -0.671239 -4.882088 1.880790849211783e-38
1.888330 -0.654824 -4.873457 1.880790849211783e-38
1.892824 -0.641118 -4.885056 1.880790849211783e-38
1.888872 -0.624546 -4.874856 1.880790849211783e-38
1.894150 -0.611016 -4.888478 1.880790849211783e-38
1.885238 -0.592938 -4.865478 1.880790849211783e-38
1.890427 -0.579324 -4.878869 1.880790849211783e-38
1.887044 -0.563070 -4.870139 1.880790849211783e-38
1.888908 -0.548393 -4.874949 1.880790849211783e-38
1.891548 -0.533904 -4.881761 1.880790849211783e-38
1.889060 -0.517968 -4.875341 1.880790849211783e-38
1.894103 -0.504076 -4.888357 1.880790849211783e-38
1.890712 -0.487926 -4.879604 1.880790849211783e-38
1.897288 -0.474322 -4.896577 1.880790849211783e-38
1.890730 -0.457435 -4.879651 1.880790849211783e-38
1.887086 -0.441335 -4.870247 1.880790849211783e-38
1.885503 -0.425759 -4.866162 1.880790849211783e-38
1.887168 -0.410916 -4.870458 1.880790849211783e-38
1.888045 -0.395880 -4.872721 1.880790849211783e-38
1.886576 -0.380358 -4.868930 1.880790849211783e-38
1.893324 -0.366450 -4.886346 1.880790849211783e-38
1.889337 -0.350442 -4.876057 1.880790849211783e-38
1.888576 -0.335070 -4.874092 1.880790849211783e-38
1.895436 -0.321001 -4.891796 1.880790849211783e-38
1.893900 -0.305468 -4.887833 1.880790849211783e-38
1.893700 -0.290164 -4.887317 1.880790849211783e-38
1.897149 -0.275393 -4.896219 1.880790849211783e-38
1.892547 -0.259462 -4.884340 1.880790849211783e-38
1.886651 -0.243439 -4.869126 1.880790849211783e-38
1.893597 -0.229064 -4.887051 1.880790849211783e-38
1.884962 -0.212818 -4.864765 1.880790849211783e-38
1.888977 -0.198038 -4.875127 1.880790849211783e-38
1.889548 -0.182860 -4.876601 1.880790849211783e-38
1.890386 -0.167696 -4.878764 1.880790849211783e-38
1.891102 -0.152508 -4.880611 1.880790849211783e-38
1.887401 -0.136989 -4.871060 1.880790849211783e-38
1.884310 -0.121568 -4.863082 1.880790849211783e-38
1.891991 -0.106806 -4.882905 1.880790849211783e-38
1.888199 -0.091364 -4.873120 1.880790849211783e-38
1.891085 -0.076253 -4.880567 1.880790849211783e-38
1.892010 -0.061033 -4.882954 1.880790849211783e-38
1.889989 -0.045726 -4.877739 1.880790849211783e-38
1.887015 -0.030436 -4.870064 1.880790849211783e-38
1.893820 -0.015273 -4.887625 1.880790849211783e-38
1.892289 0.000000 -4.883674 1.880790849211783e-38
1.886753 0.015216 -4.869387 1.880790849211783e-38
1.880173 0.030325 -4.852404 1.880790849211783e-38
1.889687 0.045718 -4.876959 1.880790849211783e-38
1.892809 0.061058 -4.885017 1.880790849211783e-38
1.890754 0.076240 -4.879713 1.880790849211783e-38
1.886175 0.091267 -4.867895 1.880790849211783e-38
1.887414 0.106548 -4.871093 1.880790849211783e-38
1.881964 0.121417 -4.857028 1.880790849211783e-38
1.892908 0.137388 -4.885271 1.880790849211783e-38
1.889488 0.152378 -4.876445 1.880790849211783e-38
1.889794 0.167643 -4.877235 1.880790849211783e-38
1.890434 0.182945 -4.878888 1.880790849211783e-38
1.898863 0.199074 -4.900642 1.880790849211783e-38
1.891768 0.213587 -4.882330 1.880790849211783e-38
1.883044 0.227788 -4.859815 1.880790849211783e-38
1.889199 0.243768 -4.875701 1.880790849211783e-38
