# .PCD v.7 - Exported by BlenSor
VERSION .7
FIELDS x y z rgb
SIZE 4 4 4 4
TYPE F F F F
COUNT 1 1 1 1
WIDTH 941
HEIGHT 1
VIEWPOINT 0 0 0 1 0 0 0
POINTS 941
DATA ascii
-0.009031 -1.137919 -2.890158 4.333194603576166e-39
-0.009131 -1.141409 -2.922215 4.333194603576166e-39
-0.009185 -1.138929 -2.939383 4.333194603576166e-39
-0.009257 -1.138631 -2.962502 4.333194603576166e-39
-0.009407 -1.147626 -3.010381 4.333194603576166e-39
-0.009457 -1.144349 -3.026592 4.333194603576166e-39
-0.009449 -1.133878 -3.023890 4.333194603576166e-39
-0.009651 -1.148514 -3.088661 4.333194603576166e-39
-0.009704 -1.145123 -3.105640 4.333194603576166e-39
-0.009765 -1.142450 -3.124872 4.333194603576166e-39
-0.009803 -1.137203 -3.137336 4.333194603576166e-39
-0.009915 -1.140278 -3.173174 4.333194603576166e-39
-0.010026 -1.142910 -3.208396 4.333194603576166e-39
-0.010074 -1.138308 -3.223758 4.333194603576166e-39
-0.010193 -1.141568 -3.261855 4.333194603576166e-39
-0.010246 -1.137254 -3.278803 4.333194603576166e-39
-0.010348 -1.138249 -3.311507 4.333194603576166e-39
-0.010479 -1.142190 -3.353456 4.333194603576166e-39
-0.010610 -1.145898 -3.395497 4.333194603576166e-39
-0.010684 -1.143136 -3.418969 4.333194603576166e-39
-0.010756 -1.140137 -3.442168 4.333194603576166e-39
-0.010826 -1.136689 -3.464442 4.333194603576166e-39
-0.010964 -1.140288 -3.508829 4.333194603576166e-39
-0.011141 -1.147534 -3.565407 4.333194603576166e-39
-0.011167 -1.139080 -3.573839 4.333194603576166e-39
-0.011296 -1.140858 -3.614858 4.333194603576166e-39
-0.011406 -1.140565 -3.650069 4.333194603576166e-39
-0.011525 -1.140951 -3.688185 4.333194603576166e-39
-0.011660 -1.142727 -3.731619 4.333194603576166e-39
-0.011802 -1.144835 -3.777044 4.333194603576166e-39
-0.011905 -1.142850 -3.809772 4.333194603576166e-39
-0.011985 -1.138550 -3.835388 4.333194603576166e-39
-0.012222 -1.148901 -3.911430 4.333194603576166e-39
-0.012231 -1.137487 -3.914213 4.333194603576166e-39
-0.012392 -1.140086 -3.965798 4.333194603576166e-39
-0.012507 -1.138110 -4.002432 4.333194603576166e-39
-0.012703 -1.143235 -4.065127 4.333194603576166e-39
-0.012772 -1.136690 -4.087269 4.333194603576166e-39
-0.012951 -1.139709 -4.144693 4.333194603576166e-39
-0.013127 -1.142022 -4.200839 4.333194603576166e-39
-0.013236 -1.138275 -4.235743 4.333194603576166e-39
-0.013438 -1.142264 -4.300594 4.333194603576166e-39
-0.013545 -1.137787 -4.334736 4.333194603576166e-39
-0.013772 -1.143051 -4.407259 4.333194603576166e-39
-0.013953 -1.144173 -4.465383 4.333194603576166e-39
-0.014012 -1.134932 -4.484001 4.333194603576166e-39
-0.014283 -1.142605 -4.570745 4.333194603576166e-39
-0.014481 -1.143961 -4.634098 4.333194603576166e-39
-0.014589 -1.137924 -4.668738 4.333194603576166e-39
-0.014854 -1.143760 -4.753626 4.333194603576166e-39
-0.015023 -1.141742 -4.807676 4.333194603576166e-39
-0.015191 -1.139302 -4.861371 4.333194603576166e-39
-0.015229 -1.126964 -4.873705 1.880790849211783e-38
-0.015215 -1.110724 -4.869276 1.880790849211783e-38
-0.015238 -1.097161 -4.876620 1.880790849211783e-38
-0.015259 -1.083394 -4.883251 1.880790849211783e-38
-0.015245 -1.067131 -4.878660 1.880790849211783e-38
-0.015203 -1.049031 -4.865416 1.880790849211783e-38
-0.015262 -1.037829 -4.884248 1.880790849211783e-38
-0.015237 -1.020905 -4.876312 1.880790849211783e-38
-0.015239 -1.005762 -4.876770 1.880790849211783e-38
-0.015254 -0.991538 -4.881767 1.880790849211783e-38
-0.015231 -0.974805 -4.874373 1.880790849211783e-38
-0.015224 -0.959107 -4.872001 1.880790849211783e-38
-0.015249 -0.945433 -4.880004 1.880790849211783e-38
-0.015274 -0.931711 -4.888011 1.880790849211783e-38
-0.015235 -0.914105 -4.875575 1.880790849211783e-38
-0.015225 -0.898264 -4.872285 1.880790849211783e-38
-0.015251 -0.884556 -4.880655 1.880790849211783e-38
-0.015248 -0.869141 -4.879737 1.880790849211783e-38
-0.015219 -0.852258 -4.870393 1.880790849211783e-38
-0.015247 -0.838591 -4.879421 1.880790849211783e-38
-0.015221 -0.821934 -4.871066 1.880790849211783e-38
-0.015254 -0.808466 -4.881649 1.880790849211783e-38
-0.015264 -0.793732 -4.884850 1.880790849211783e-38
-0.015216 -0.776037 -4.869600 1.880790849211783e-38
-0.015277 -0.763867 -4.889095 1.880790849211783e-38
-0.015179 -0.743785 -4.857719 1.880790849211783e-38
-0.015278 -0.733367 -4.889464 1.880790849211783e-38
-0.015272 -0.717793 -4.887452 1.880790849211783e-38
-0.015297 -0.703644 -4.895263 1.880790849211783e-38
-0.015271 -0.687211 -4.887184 1.880790849211783e-38
-0.015267 -0.671765 -4.885915 1.880790849211783e-38
-0.015242 -0.655416 -4.877861 1.880790849211783e-38
-0.015188 -0.637890 -4.860464 1.880790849211783e-38
-0.015204 -0.623369 -4.865665 1.880790849211783e-38
-0.015203 -0.608131 -4.865396 1.880790849211783e-38
-0.015257 -0.595024 -4.882597 1.880790849211783e-38
-0.015260 -0.579895 -4.883676 1.880790849211783e-38
-0.015242 -0.563955 -4.877795 1.880790849211783e-38
-0.015216 -0.547772 -4.869434 1.880790849211783e-38
-0.015246 -0.533622 -4.879179 1.880790849211783e-38
-0.015223 -0.517572 -4.871616 1.880790849211783e-38
-0.015209 -0.501887 -4.867126 1.880790849211783e-38
-0.015215 -0.486880 -4.869147 1.880790849211783e-38
-0.015291 -0.474028 -4.893540 1.880790849211783e-38
-0.015247 -0.457424 -4.879539 1.880790849211783e-38
-0.015236 -0.441830 -4.875719 1.880790849211783e-38
-0.015294 -0.428233 -4.894444 1.880790849211783e-38
-0.015256 -0.411906 -4.882196 1.880790849211783e-38
-0.015207 -0.395377 -4.866525 1.880790849211783e-38
-0.015234 -0.380862 -4.875386 1.880790849211783e-38
-0.015250 -0.365999 -4.880336 1.880790849211783e-38
-0.015251 -0.350771 -4.880647 1.880790849211783e-38
-0.015240 -0.335289 -4.877283 1.880790849211783e-38
-0.009571 -0.200999 -3.063067 1.874089839955382e-38
-0.009521 -0.190416 -3.046867 1.874089839955382e-38
-0.009490 -0.180303 -3.036899 1.874089839955382e-38
-0.009526 -0.171477 -3.048693 1.874089839955382e-38
-0.009480 -0.161164 -3.033899 1.874089839955382e-38
-0.009533 -0.152531 -3.050837 1.874089839955382e-38
-0.009495 -0.142427 -3.038663 1.874089839955382e-38
-0.009472 -0.132613 -3.031379 1.874089839955382e-38
-0.009474 -0.123163 -3.031910 1.874089839955382e-38
-0.009478 -0.113735 -3.033150 1.874089839955382e-38
-0.009431 -0.103740 -3.018118 1.874089839955382e-38
-0.009530 -0.095304 -3.049943 1.874089839955382e-38
-0.009468 -0.085211 -3.029954 1.874089839955382e-38
-0.009480 -0.075840 -3.033804 1.874089839955382e-38
-0.009444 -0.066106 -3.022206 1.874089839955382e-38
-0.009426 -0.056553 -3.016384 1.874089839955382e-38
-0.009438 -0.047190 -3.020390 1.874089839955382e-38
-0.009427 -0.037708 -3.016826 1.874089839955382e-38
-0.009430 -0.028291 -3.017958 1.874089839955382e-38
-0.009415 -0.018829 -3.012931 1.874089839955382e-38
-0.009436 -0.009436 -3.019608 1.874089839955382e-38
-0.009428 0.000000 -3.017231 1.874089839955382e-38
-0.009415 0.009415 -3.013067 1.874089839955382e-38
-0.009366 0.018731 -2.997197 1.874089839955382e-38
-0.009434 0.028303 -3.019201 1.874089839955382e-38
-0.009458 0.037831 -3.026722 1.874089839955382e-38
-0.009493 0.047464 -3.037936 1.874089839955382e-38
-0.009418 0.056509 -3.014009 1.874089839955382e-38
-0.009446 0.066119 -3.022796 1.874089839955382e-38
-0.009416 0.075326 -3.013248 1.874089839955382e-38
-0.009409 0.084681 -3.011097 1.874089839955382e-38
-0.009316 0.093158 -2.981276 1.874089839955382e-38
-0.009457 0.104024 -3.026364 1.874089839955382e-38
-0.009424 0.113089 -3.015919 1.874089839955382e-38
-0.009428 0.122566 -3.017213 1.874089839955382e-38
-0.009403 0.131644 -3.009225 1.874089839955382e-38
-0.009411 0.141160 -3.011631 1.874089839955382e-38
-0.009413 0.150614 -3.012495 1.874089839955382e-38
-0.009431 0.160327 -3.018142 1.874089839955382e-38
-0.009433 0.169792 -3.018733 1.874089839955382e-38
-0.009426 0.179094 -3.016539 1.874089839955382e-38
-0.009433 0.188666 -3.018867 1.874089839955382e-38
-0.009448 0.198399 -3.023435 1.874089839955382e-38
-0.009448 0.207867 -3.023734 1.874089839955382e-38
-0.009465 0.217688 -3.028918 1.874089839955382e-38
-0.009470 0.227288 -3.030726 1.874089839955382e-38
-0.009383 0.234578 -3.002807 1.874089839955382e-38
-0.009473 0.246288 -3.031457 1.874089839955382e-38
-0.009410 0.254061 -3.011308 1.874089839955382e-38
-0.009432 0.264101 -3.018517 1.874089839955382e-38
-0.009454 0.274164 -3.025479 1.874089839955382e-38
-0.009415 0.282450 -3.013018 1.874089839955382e-38
-0.009373 0.290564 -2.999580 1.874089839955382e-38
-0.009558 0.305855 -3.058767 1.874089839955382e-38
-0.009469 0.312492 -3.030441 1.874089839955382e-38
-0.009419 0.320234 -3.014180 1.874089839955382e-38
-0.009431 0.330072 -3.018020 1.874089839955382e-38
-0.009498 0.341941 -3.039694 1.874089839955382e-38
-0.009517 0.352113 -3.045520 1.874089839955382e-38
-0.009483 0.360344 -3.034694 1.874089839955382e-38
-0.009490 0.370104 -3.036970 1.874089839955382e-38
-0.009469 0.378748 -3.030203 1.874089839955382e-38
-0.009567 0.392233 -3.061550 1.874089839955382e-38
-0.009566 0.401772 -3.061342 1.874089839955382e-38
-0.009617 0.413538 -3.077711 1.874089839955382e-38
-0.009620 0.423296 -3.078734 1.874089839955382e-38
-0.009627 0.433236 -3.081011 1.874089839955382e-38
-0.009675 0.445072 -3.096376 1.874089839955382e-38
-0.009643 0.453204 -3.085867 1.874089839955382e-38
-0.009702 0.465688 -3.104805 1.874089839955382e-38
-0.009695 0.475072 -3.102734 1.874089839955382e-38
-0.009744 0.487205 -3.118336 1.874089839955382e-38
-0.009726 0.496036 -3.112604 1.874089839955382e-38
-0.009781 0.508622 -3.130203 1.874089839955382e-38
-0.009750 0.516775 -3.120374 1.874089839955382e-38
-0.009771 0.527614 -3.126824 1.874089839955382e-38
-0.009762 0.536919 -3.124113 1.874089839955382e-38
-0.009790 0.548222 -3.132923 1.874089839955382e-38
-0.009781 0.557521 -3.130166 1.874089839955382e-38
-0.009825 0.569848 -3.144213 1.874089839955382e-38
-0.009729 0.573987 -3.113373 1.874089839955382e-38
-0.009736 0.584158 -3.115731 1.874089839955382e-38
-0.009705 0.591992 -3.105754 1.874089839955382e-38
-0.009653 0.598510 -3.089304 4.389633300525313e-39
-0.009648 0.607842 -3.087672 4.389633300525313e-39
-0.009572 0.612607 -3.063255 4.389633300525313e-39
-0.009563 0.621582 -3.060313 4.389633300525313e-39
-0.009607 0.634035 -3.074326 4.389633300525313e-39
-0.009568 0.641089 -3.062134 4.389633300525313e-39
-0.009570 0.650746 -3.062554 4.389633300525313e-39
-0.009625 0.664144 -3.080309 4.389633300525313e-39
-0.009542 0.667929 -3.053609 4.389633300525313e-39
-0.009556 0.678502 -3.058257 4.389633300525313e-39
-0.009582 0.689930 -3.066573 4.389633300525313e-39
-0.009540 0.696435 -3.053082 4.389633300525313e-39
-0.009561 0.707495 -3.059655 4.389633300525313e-39
-0.009597 0.719750 -3.071151 4.389633300525313e-39
-0.009602 0.729760 -3.072891 4.389633300525313e-39
-0.009558 0.735963 -3.058765 4.389633300525313e-39
-0.009542 0.744284 -3.053692 4.389633300525313e-39
-0.009545 0.754076 -3.054701 4.389633300525313e-39
-0.009553 0.764251 -3.057224 4.389633300525313e-39
-0.009611 0.778457 -3.075607 4.389633300525313e-39
-0.009571 0.784791 -3.062818 4.389633300525313e-39
-0.009604 0.797097 -3.073363 4.389633300525313e-39
-0.009666 0.811916 -3.093233 4.389633300525313e-39
-0.015205 1.292439 -4.865998 1.880790849211783e-38
-0.015261 1.312451 -4.883888 1.880790849211783e-38
-0.015249 1.326675 -4.880072 1.880790849211783e-38
-0.015204 1.337970 -4.865694 1.880790849211783e-38
-0.015265 1.358624 -4.885291 1.880790849211783e-38
-0.015223 1.370071 -4.871711 1.880790849211783e-38
-0.015262 1.388858 -4.884244 1.880790849211783e-38
-0.015211 1.399400 -4.867825 1.880790849211783e-38
-0.015260 1.419157 -4.883468 1.880790849211783e-38
-0.015221 1.430750 -4.870985 1.880790849211783e-38
-0.015214 1.445312 -4.868766 1.880790849211783e-38
-0.015223 1.461424 -4.871760 1.880790849211783e-38
-0.015219 1.476198 -4.870278 1.880790849211783e-38
-0.015250 1.494512 -4.880387 1.880790849211783e-38
-0.015250 1.509779 -4.880443 1.880790849211783e-38
-0.015249 1.524903 -4.880037 1.880790849211783e-38
-0.015227 1.537959 -4.873090 1.880790849211783e-38
-0.015221 1.552545 -4.871076 1.880790849211783e-38
-0.015276 1.573461 -4.888771 1.880790849211783e-38
-0.015223 1.583201 -4.871736 1.880790849211783e-38
-0.015215 1.597537 -4.869032 1.880790849211783e-38
-0.015221 1.613441 -4.871113 1.880790849211783e-38
-0.015307 1.637848 -4.898585 1.880790849211783e-38
-0.015226 1.644436 -4.872749 1.880790849211783e-38
-0.015238 1.660935 -4.876487 1.880790849211783e-38
-0.015241 1.676472 -4.877358 1.880790849211783e-38
-0.015218 1.689147 -4.869961 1.880790849211783e-38
-0.015283 1.711667 -4.890826 1.880790849211783e-38
-0.015249 1.723149 -4.880062 1.880790849211783e-38
-0.015263 1.740004 -4.884570 1.880790849211783e-38
-0.015257 1.754519 -4.882487 1.880790849211783e-38
-0.015240 1.767834 -4.877131 1.880790849211783e-38
-0.015259 1.785343 -4.883339 1.880790849211783e-38
-0.015173 1.790456 -4.855819 1.880790849211783e-38
-0.015233 1.812764 -4.875007 1.880790849211783e-38
-0.015244 1.829250 -4.878349 1.880790849211783e-38
-0.015212 1.840695 -4.868301 1.880790849211783e-38
-0.015324 1.869517 -4.904001 1.880790849211783e-38
-0.015276 1.878988 -4.888772 1.880790849211783e-38
-0.015171 1.881196 -4.855044 1.880790849211783e-38
-0.015238 1.904740 -4.876482 1.880790849211783e-38
-0.015244 1.920772 -4.878500 1.880790849211783e-38
-0.015219 1.932830 -4.870470 1.880790849211783e-38
0.000000 -1.139244 -2.848314 4.333194603576166e-39
0.000000 -1.141166 -2.875585 4.333194603576166e-39
0.000000 -1.144373 -2.906552 4.333194603576166e-39
0.000000 -1.137332 -2.911778 4.333194603576166e-39
0.000000 -1.144497 -2.953752 4.333194603576166e-39
0.000000 -1.141076 -2.968866 4.333194603576166e-39
0.000000 -1.143592 -2.999800 4.333194603576166e-39
0.000000 -1.146619 -3.032596 4.333194603576166e-39
0.000000 -1.140680 -3.042030 4.333194603576166e-39
0.000000 -1.140349 -3.066702 4.333194603576166e-39
0.000000 -1.140763 -3.093815 4.333194603576166e-39
0.000000 -1.143367 -3.127380 4.333194603576166e-39
0.000000 -1.137187 -3.137290 4.333194603576166e-39
0.000000 -1.143750 -3.182836 4.333194603576166e-39
0.000000 -1.141574 -3.204645 4.333194603576166e-39
0.000000 -1.141032 -3.231471 4.333194603576166e-39
0.000000 -1.138998 -3.254512 4.333194603576166e-39
0.000000 -1.144588 -3.299947 4.333194603576166e-39
0.000000 -1.137767 -3.310105 4.333194603576166e-39
0.000000 -1.144085 -3.359021 4.333194603576166e-39
0.000000 -1.137662 -3.371090 4.333194603576166e-39
0.000000 -1.144640 -3.423467 4.333194603576166e-39
0.000000 -1.146315 -3.460820 4.333194603576166e-39
0.000000 -1.145608 -3.491625 4.333194603576166e-39
0.000000 -1.140799 -3.510402 4.333194603576166e-39
0.000000 -1.144730 -3.556695 4.333194603576166e-39
0.000000 -1.137689 -3.569476 4.333194603576166e-39
0.000000 -1.137538 -3.604339 4.333194603576166e-39
0.000000 -1.148262 -3.674702 4.333194603576166e-39
0.000000 -1.139175 -3.682445 4.333194603576166e-39
0.000000 -1.141770 -3.728495 4.333194603576166e-39
0.000000 -1.144145 -3.774766 4.333194603576166e-39
0.000000 -1.136185 -3.787553 4.333194603576166e-39
0.000000 -1.135045 -3.823584 4.333194603576166e-39
0.000000 -1.139101 -3.878066 4.333194603576166e-39
0.000000 -1.144158 -3.937168 4.333194603576166e-39
0.000000 -1.135063 -3.948325 4.333194603576166e-39
0.000000 -1.145444 -4.028222 4.333194603576166e-39
0.000000 -1.141257 -4.058091 4.333194603576166e-39
0.000000 -1.144054 -4.113746 4.333194603576166e-39
0.000000 -1.136419 -4.132728 4.333194603576166e-39
0.000000 -1.137548 -4.184382 4.333194603576166e-39
0.000000 -1.143491 -4.255154 4.333194603576166e-39
0.000000 -1.138120 -4.284991 4.333194603576166e-39
0.000000 -1.146739 -4.368843 4.333194603576166e-39
0.000000 -1.145336 -4.416068 4.333194603576166e-39
0.000000 -1.144020 -4.464786 4.333194603576166e-39
0.000000 -1.147306 -4.532890 4.333194603576166e-39
0.000000 -1.143756 -4.575350 4.333194603576166e-39
0.000000 -1.140711 -4.620933 4.333194603576166e-39
0.000000 -1.140935 -4.681091 4.333194603576166e-39
0.000000 -1.145242 -4.759785 4.333194603576166e-39
0.000000 -1.143515 -4.815144 4.333194603576166e-39
0.000000 -1.141985 -4.872818 4.333194603576166e-39
0.000000 -1.128436 -4.880072 1.880790849211783e-38
0.000000 -1.111287 -4.871741 1.880790849211783e-38
0.000000 -1.094939 -4.866744 1.880790849211783e-38
0.000000 -1.085061 -4.890764 1.880790849211783e-38
0.000000 -1.066134 -4.874104 1.880790849211783e-38
0.000000 -1.046059 -4.851634 1.880790849211783e-38
0.000000 -1.032127 -4.857414 1.880790849211783e-38
0.000000 -1.015041 -4.848301 1.880790849211783e-38
0.000000 -1.003880 -4.867645 1.880790849211783e-38
0.000000 -0.989352 -4.871006 1.880790849211783e-38
0.000000 -0.974116 -4.870927 1.880790849211783e-38
0.000000 -0.958099 -4.866882 1.880790849211783e-38
0.000000 -0.944066 -4.872946 1.880790849211783e-38
0.000000 -0.930041 -4.879251 1.880790849211783e-38
0.000000 -0.917240 -4.892296 1.880790849211783e-38
0.000000 -0.898428 -4.873179 1.880790849211783e-38
0.000000 -0.878819 -4.849005 1.880790849211783e-38
0.000000 -0.869211 -4.880130 1.880790849211783e-38
0.000000 -0.851344 -4.865171 1.880790849211783e-38
0.000000 -0.839602 -4.885307 1.880790849211783e-38
0.000000 -0.820572 -4.862993 1.880790849211783e-38
0.000000 -0.806575 -4.870237 1.880790849211783e-38
0.000000 -0.793562 -4.883808 1.880790849211783e-38
0.000000 -0.779667 -4.892375 1.880790849211783e-38
0.000000 -0.760687 -4.868747 1.880790849211783e-38
0.000000 -0.749486 -4.894949 1.880790849211783e-38
0.000000 -0.730912 -4.873092 1.880790849211783e-38
0.000000 -0.714913 -4.867842 1.880790849211783e-38
0.000000 -0.700037 -4.870170 1.880790849211783e-38
0.000000 -0.683383 -4.859959 1.880790849211783e-38
0.000000 -0.670617 -4.877566 1.880790849211783e-38
0.000000 -0.657493 -4.893317 1.880790849211783e-38
0.000000 -0.639254 -4.870852 1.880790849211783e-38
0.000000 -0.626394 -4.889276 1.880790849211783e-38
0.000000 -0.608464 -4.868058 1.880790849211783e-38
0.000000 -0.595832 -4.889225 1.880790849211783e-38
0.000000 -0.579143 -4.877339 1.880790849211783e-38
0.000000 -0.562017 -4.861035 1.880790849211783e-38
0.000000 -0.549354 -4.883499 1.880790849211783e-38
0.000000 -0.534518 -4.887368 1.880790849211783e-38
0.000000 -0.519069 -4.885702 1.880790849211783e-38
0.000000 -0.501906 -4.867312 1.880790849211783e-38
0.000000 -0.486629 -4.866639 1.880790849211783e-38
0.000000 -0.472590 -4.878699 1.880790849211783e-38
0.000000 -0.458265 -4.888512 1.880790849211783e-38
0.000000 -0.442236 -4.880198 1.880790849211783e-38
0.000000 -0.426405 -4.873545 1.880790849211783e-38
0.000000 -0.411039 -4.871919 1.880790849211783e-38
0.000000 -0.394798 -4.859404 1.880790849211783e-38
0.000000 -0.381797 -4.887344 1.880790849211783e-38
0.000000 -0.366529 -4.887396 1.880790849211783e-38
0.000000 -0.351393 -4.889289 1.880790849211783e-38
0.000000 -0.335678 -4.882945 1.880790849211783e-38
0.000000 -0.201507 -3.070794 1.874089839955382e-38
0.000000 -0.190576 -3.049429 1.874089839955382e-38
0.000000 -0.181747 -3.061213 1.874089839955382e-38
0.000000 -0.171360 -3.046617 1.874089839955382e-38
0.000000 -0.161118 -3.033034 1.874089839955382e-38
0.000000 -0.151703 -3.034284 1.874089839955382e-38
0.000000 -0.142347 -3.036948 1.874089839955382e-38
0.000000 -0.132373 -3.025894 1.874089839955382e-38
0.000000 -0.123438 -3.038700 1.874089839955382e-38
0.000000 -0.113453 -3.025631 1.874089839955382e-38
0.000000 -0.104074 -3.027822 1.874089839955382e-38
0.000000 -0.094636 -3.028552 1.874089839955382e-38
0.000000 -0.085444 -3.038231 1.874089839955382e-38
0.000000 -0.075294 -3.011969 1.874089839955382e-38
0.000000 -0.066163 -3.024803 1.874089839955382e-38
0.000000 -0.056841 -3.031723 1.874089839955382e-38
0.000000 -0.047296 -3.027167 1.874089839955382e-38
0.000000 -0.037672 -3.013954 1.874089839955382e-38
0.000000 -0.028390 -3.028469 1.874089839955382e-38
0.000000 -0.018845 -3.015461 1.874089839955382e-38
0.000000 -0.009428 -3.017230 1.874089839955382e-38
0.000000 0.000000 -3.024377 1.874089839955382e-38
0.000000 0.009424 -3.015863 1.874089839955382e-38
0.000000 0.018804 -3.008924 1.874089839955382e-38
0.000000 0.028174 -3.005478 1.874089839955382e-38
0.000000 0.037679 -3.014545 1.874089839955382e-38
0.000000 0.047323 -3.028869 1.874089839955382e-38
0.000000 0.056596 -3.018658 1.874089839955382e-38
0.000000 0.066092 -3.021580 1.874089839955382e-38
0.000000 0.074964 -2.998756 1.874089839955382e-38
0.000000 0.084722 -3.012547 1.874089839955382e-38
0.000000 0.094849 -3.035394 1.874089839955382e-38
0.000000 0.103294 -3.005128 1.874089839955382e-38
0.000000 0.112365 -2.996603 1.874089839955382e-38
0.000000 0.122649 -3.019261 1.874089839955382e-38
0.000000 0.132089 -3.019391 1.874089839955382e-38
0.000000 0.140590 -2.999462 1.874089839955382e-38
0.000000 0.149992 -3.000057 1.874089839955382e-38
0.000000 0.159701 -3.006356 1.874089839955382e-38
0.000000 0.168745 -3.000118 1.874089839955382e-38
0.000000 0.178612 -3.008420 1.874089839955382e-38
0.000000 0.188852 -3.021853 1.874089839955382e-38
0.000000 0.196815 -2.999299 1.874089839955382e-38
0.000000 0.207821 -3.023060 1.874089839955382e-38
0.000000 0.217915 -3.032083 1.874089839955382e-38
0.000000 0.226632 -3.021974 1.874089839955382e-38
0.000000 0.235999 -3.021004 1.874089839955382e-38
0.000000 0.243920 -3.002305 1.874089839955382e-38
0.000000 0.254416 -3.015520 1.874089839955382e-38
0.000000 0.264957 -3.028297 1.874089839955382e-38
0.000000 0.273624 -3.019515 1.874089839955382e-38
0.000000 0.284464 -3.034501 1.874089839955382e-38
0.000000 0.292127 -3.015724 1.874089839955382e-38
0.000000 0.302118 -3.021395 1.874089839955382e-38
0.000000 0.312145 -3.027076 1.874089839955382e-38
0.000000 0.322945 -3.039703 1.874089839955382e-38
0.000000 0.331273 -3.029001 1.874089839955382e-38
0.000000 0.343345 -3.052177 1.874089839955382e-38
0.000000 0.350376 -3.030495 1.874089839955382e-38
0.000000 0.360262 -3.034001 1.874089839955382e-38
0.000000 0.369671 -3.033412 1.874089839955382e-38
0.000000 0.382013 -3.056326 1.874089839955382e-38
0.000000 0.392295 -3.062037 1.874089839955382e-38
0.000000 0.405262 -3.087929 1.874089839955382e-38
0.000000 0.410975 -3.058635 1.874089839955382e-38
0.000000 0.419534 -3.051371 1.874089839955382e-38
0.000000 0.434059 -3.086863 1.874089839955382e-38
0.000000 0.443290 -3.083973 1.874089839955382e-38
0.000000 0.453726 -3.089417 1.874089839955382e-38
0.000000 0.464420 -3.096356 1.874089839955382e-38
0.000000 0.477366 -3.117716 1.874089839955382e-38
0.000000 0.484228 -3.099279 1.874089839955382e-38
0.000000 0.496474 -3.115352 1.874089839955382e-38
0.000000 0.506533 -3.117346 1.874089839955382e-38
0.000000 0.519370 -3.136041 1.874089839955382e-38
0.000000 0.527389 -3.125490 1.874089839955382e-38
0.000000 0.537639 -3.128307 1.874089839955382e-38
0.000000 0.545209 -3.115705 1.874089839955382e-38
0.000000 0.557935 -3.132490 1.874089839955382e-38
0.000000 0.564187 -3.112977 1.874089839955382e-38
0.000000 0.575255 -3.120251 1.874089839955382e-38
0.000000 0.583373 -3.111547 1.874089839955382e-38
0.000000 0.590262 -3.096677 1.874089839955382e-38
0.000000 0.602242 -3.108566 4.389633300525313e-39
0.000000 0.610117 -3.099227 4.389633300525313e-39
0.000000 0.615848 -3.079462 4.389633300525313e-39
0.000000 0.628334 -3.093557 4.389633300525313e-39
0.000000 0.637412 -3.090703 4.389633300525313e-39
0.000000 0.640556 -3.059589 4.389633300525313e-39
0.000000 0.650616 -3.061941 4.389633300525313e-39
0.000000 0.663932 -3.079323 4.389633300525313e-39
0.000000 0.668994 -3.058478 4.389633300525313e-39
0.000000 0.681482 -3.071689 4.389633300525313e-39
0.000000 0.686971 -3.053421 4.389633300525313e-39
0.000000 0.699348 -3.065854 4.389633300525313e-39
0.000000 0.707566 -3.059963 4.389633300525313e-39
0.000000 0.721781 -3.079819 4.389633300525313e-39
0.000000 0.728408 -3.067200 4.389633300525313e-39
0.000000 0.735366 -3.056286 4.389633300525313e-39
0.000000 0.747525 -3.066988 4.389633300525313e-39
0.000000 0.754791 -3.057601 4.389633300525313e-39
0.000000 0.768544 -3.074395 4.389633300525313e-39
0.000000 0.776283 -3.067014 4.389633300525313e-39
0.000000 0.786520 -3.069566 4.389633300525313e-39
0.000000 0.803227 -3.097001 4.389633300525313e-39
0.000000 0.813591 -3.099615 4.389633300525313e-39
0.000000 1.290463 -4.858561 1.880790849211783e-38
0.000000 1.310810 -4.877779 1.880790849211783e-38
0.000000 1.329014 -4.888678 1.880790849211783e-38
0.000000 1.343884 -4.887199 1.880790849211783e-38
0.000000 1.355244 -4.873134 1.880790849211783e-38
0.000000 1.371683 -4.877442 1.880790849211783e-38
0.000000 1.389342 -4.885947 1.880790849211783e-38
0.000000 1.397625 -4.861650 1.880790849211783e-38
0.000000 1.414737 -4.868259 1.880790849211783e-38
0.000000 1.431186 -4.872469 1.880790849211783e-38
0.000000 1.447091 -4.874760 1.880790849211783e-38
0.000000 1.462060 -4.873882 1.880790849211783e-38
0.000000 1.478383 -4.877489 1.880790849211783e-38
0.000000 1.492874 -4.875038 1.880790849211783e-38
0.000000 1.507746 -4.873869 1.880790849211783e-38
0.000000 1.524097 -4.877460 1.880790849211783e-38
0.000000 1.540096 -4.879859 1.880790849211783e-38
0.000000 1.555388 -4.879996 1.880790849211783e-38
0.000000 1.567767 -4.871079 1.880790849211783e-38
0.000000 1.584207 -4.874831 1.880790849211783e-38
0.000000 1.597427 -4.868697 1.880790849211783e-38
0.000000 1.615431 -4.877122 1.880790849211783e-38
0.000000 1.634551 -4.888725 1.880790849211783e-38
0.000000 1.643690 -4.870539 1.880790849211783e-38
0.000000 1.666174 -4.891869 1.880790849211783e-38
0.000000 1.670565 -4.860173 1.880790849211783e-38
0.000000 1.693591 -4.882773 1.880790849211783e-38
0.000000 1.711645 -4.890762 1.880790849211783e-38
0.000000 1.720689 -4.873095 1.880790849211783e-38
0.000000 1.737029 -4.876218 1.880790849211783e-38
0.000000 1.755088 -4.884071 1.880790849211783e-38
0.000000 1.769485 -4.881687 1.880790849211783e-38
0.000000 1.783233 -4.877567 1.880790849211783e-38
0.000000 1.796116 -4.871171 1.880790849211783e-38
0.000000 1.815013 -4.881056 1.880790849211783e-38
0.000000 1.823778 -4.863753 1.880790849211783e-38
0.000000 1.847950 -4.887489 1.880790849211783e-38
0.000000 1.861039 -4.881761 1.880790849211783e-38
0.000000 1.874038 -4.875894 1.880790849211783e-38
0.000000 1.888448 -4.873763 1.880790849211783e-38
0.000000 1.909244 -4.888014 1.880790849211783e-38
0.000000 1.920576 -4.878002 1.880790849211783e-38
0.000000 1.936270 -4.879140 1.880790849211783e-38
0.008941 -1.144475 -2.861392 4.333194603576166e-39
0.009041 -1.148238 -2.893404 4.333194603576166e-39
0.009113 -1.148300 -2.916525 4.333194603576166e-39
0.009099 -1.137329 -2.911771 4.333194603576166e-39
0.009223 -1.143638 -2.951533 4.333194603576166e-39
0.009287 -1.142318 -2.972095 4.333194603576166e-39
0.009384 -1.144849 -3.003096 4.333194603576166e-39
0.009413 -1.139021 -3.012501 4.333194603576166e-39
0.009487 -1.138392 -3.035929 4.333194603576166e-39
0.009558 -1.137345 -3.058625 4.333194603576166e-39
0.009707 -1.145458 -3.106547 4.333194603576166e-39
0.009746 -1.140305 -3.119004 4.333194603576166e-39
0.009874 -1.145366 -3.159856 4.333194603576166e-39
0.009927 -1.141634 -3.176947 4.333194603576166e-39
0.010096 -1.150916 -3.230870 4.333194603576166e-39
0.010072 -1.138169 -3.223364 4.333194603576166e-39
0.010203 -1.142715 -3.265133 4.333194603576166e-39
0.010295 -1.142787 -3.294757 4.333194603576166e-39
0.010405 -1.144512 -3.329727 4.333194603576166e-39
0.010476 -1.141889 -3.352573 4.333194603576166e-39
0.010530 -1.137251 -3.369873 4.333194603576166e-39
0.010695 -1.144326 -3.422528 4.333194603576166e-39
0.010716 -1.135905 -3.429393 4.333194603576166e-39
0.010877 -1.142068 -3.480837 4.333194603576166e-39
0.010970 -1.140926 -3.510791 4.333194603576166e-39
0.011061 -1.139300 -3.539826 4.333194603576166e-39
0.011234 -1.145900 -3.595237 4.333194603576166e-39
0.011279 -1.139185 -3.609556 4.333194603576166e-39
0.011463 -1.146307 -3.668444 4.333194603576166e-39
0.011535 -1.141974 -3.691494 4.333194603576166e-39
0.011608 -1.137594 -3.714858 4.333194603576166e-39
0.011731 -1.137952 -3.754338 4.333194603576166e-39
0.011889 -1.141319 -3.804668 4.333194603576166e-39
0.012011 -1.141000 -3.843642 4.333194603576166e-39
0.012148 -1.141955 -3.887782 4.333194603576166e-39
0.012343 -1.147934 -3.950161 4.333194603576166e-39
0.012387 -1.139649 -3.964278 4.333194603576166e-39
0.012552 -1.142218 -4.016879 4.333194603576166e-39
0.012691 -1.142210 -4.061481 4.333194603576166e-39
0.012808 -1.139870 -4.098703 4.333194603576166e-39
0.012991 -1.143173 -4.157290 4.333194603576166e-39
0.013137 -1.142944 -4.204232 4.333194603576166e-39
0.013283 -1.142324 -4.250813 4.333194603576166e-39
0.013434 -1.141849 -4.299030 4.333194603576166e-39
0.013584 -1.141074 -4.347260 4.333194603576166e-39
0.013735 -1.140009 -4.395530 4.333194603576166e-39
0.013898 -1.139648 -4.447723 4.333194603576166e-39
0.014111 -1.142971 -4.515763 4.333194603576166e-39
0.014274 -1.141946 -4.568108 4.333194603576166e-39
0.014454 -1.141857 -4.625572 4.333194603576166e-39
0.014657 -1.143233 -4.690522 4.333194603576166e-39
0.014809 -1.140312 -4.739295 4.333194603576166e-39
0.015041 -1.143135 -4.813543 4.333194603576166e-39
0.015223 -1.141745 -4.871792 4.333194603576166e-39
0.015237 -1.127527 -4.876142 1.880790849211783e-38
0.015237 -1.112310 -4.876226 1.880790849211783e-38
0.015244 -1.097579 -4.878477 1.880790849211783e-38
0.015345 -1.089476 -4.910664 1.880790849211783e-38
0.015199 -1.063959 -4.864159 1.880790849211783e-38
0.015207 -1.049312 -4.866721 1.880790849211783e-38
0.015250 -1.036976 -4.880235 1.880790849211783e-38
0.015262 -1.022564 -4.884234 1.880790849211783e-38
0.015176 -1.001586 -4.856521 1.880790849211783e-38
0.015296 -0.994228 -4.895010 1.880790849211783e-38
0.015195 -0.972450 -4.862597 1.880790849211783e-38
0.015258 -0.961242 -4.882850 1.880790849211783e-38
0.015231 -0.944333 -4.874323 1.880790849211783e-38
0.015273 -0.931678 -4.887838 1.880790849211783e-38
0.015226 -0.913587 -4.872810 1.880790849211783e-38
0.015204 -0.897014 -4.865510 1.880790849211783e-38
0.015291 -0.886907 -4.893629 1.880790849211783e-38
0.015273 -0.870567 -4.887740 1.880790849211783e-38
0.015240 -0.853458 -4.877252 1.880790849211783e-38
0.015243 -0.838343 -4.877983 1.880790849211783e-38
0.015222 -0.821964 -4.871246 1.880790849211783e-38
0.015222 -0.806741 -4.871236 1.880790849211783e-38
0.015241 -0.792557 -4.877620 1.880790849211783e-38
0.015260 -0.778241 -4.883428 1.880790849211783e-38
0.015263 -0.763152 -4.884522 1.880790849211783e-38
0.015242 -0.746836 -4.877642 1.880790849211783e-38
0.015199 -0.729549 -4.864007 1.880790849211783e-38
0.015266 -0.717494 -4.885411 1.880790849211783e-38
0.015220 -0.700134 -4.870847 1.880790849211783e-38
0.015256 -0.686500 -4.882127 1.880790849211783e-38
0.015210 -0.669241 -4.867556 1.880790849211783e-38
0.015229 -0.654859 -4.873719 1.880790849211783e-38
0.015319 -0.643416 -4.902565 1.880790849211783e-38
0.015195 -0.622999 -4.862777 1.880790849211783e-38
0.015270 -0.610788 -4.886655 1.880790849211783e-38
0.015219 -0.593558 -4.870564 1.880790849211783e-38
0.015264 -0.580026 -4.884778 1.880790849211783e-38
0.015225 -0.563309 -4.872208 1.880790849211783e-38
0.015225 -0.548116 -4.872490 1.880790849211783e-38
0.015283 -0.534892 -4.890791 1.880790849211783e-38
0.015250 -0.518504 -4.880390 1.880790849211783e-38
0.015229 -0.502568 -4.873733 1.880790849211783e-38
0.015228 -0.487291 -4.873257 1.880790849211783e-38
0.015215 -0.471654 -4.869036 1.880790849211783e-38
0.015260 -0.457787 -4.883409 1.880790849211783e-38
0.015246 -0.442136 -4.879089 1.880790849211783e-38
0.015320 -0.428951 -4.902652 1.880790849211783e-38
0.015241 -0.411518 -4.877604 1.880790849211783e-38
0.015225 -0.395842 -4.872243 1.880790849211783e-38
0.015273 -0.381826 -4.887718 1.880790849211783e-38
0.015248 -0.365954 -4.879728 1.880790849211783e-38
0.015222 -0.350103 -4.871344 1.880790849211783e-38
0.015236 -0.335181 -4.875710 1.880790849211783e-38
0.009631 -0.202242 -3.082004 1.874089839955382e-38
0.009575 -0.191503 -3.064269 1.874089839955382e-38
0.009582 -0.182062 -3.066529 1.874089839955382e-38
0.009518 -0.171327 -3.046028 1.874089839955382e-38
0.009486 -0.161264 -3.035781 1.874089839955382e-38
0.009519 -0.152305 -3.046316 1.874089839955382e-38
0.009528 -0.142925 -3.049285 1.874089839955382e-38
0.009555 -0.133767 -3.057739 1.874089839955382e-38
0.009472 -0.123142 -3.031403 1.874089839955382e-38
0.009479 -0.113752 -3.033609 1.874089839955382e-38
0.009475 -0.104220 -3.032063 1.874089839955382e-38
0.009429 -0.094286 -3.017365 1.874089839955382e-38
0.009448 -0.085036 -3.023705 1.874089839955382e-38
0.009402 -0.075213 -3.008749 1.874089839955382e-38
0.009405 -0.065835 -3.009820 1.874089839955382e-38
0.009495 -0.056967 -3.038457 1.874089839955382e-38
0.009477 -0.047384 -3.032807 1.874089839955382e-38
0.009346 -0.037382 -2.990810 1.874089839955382e-38
0.009417 -0.028251 -3.013651 1.874089839955382e-38
0.009393 -0.018786 -3.006049 1.874089839955382e-38
0.009436 -0.009436 -3.019790 1.874089839955382e-38
0.009431 0.000000 -3.018227 1.874089839955382e-38
0.009429 0.009429 -3.017596 1.874089839955382e-38
0.009411 0.018822 -3.011746 1.874089839955382e-38
0.009426 0.028278 -3.016564 1.874089839955382e-38
0.009433 0.037733 -3.018837 1.874089839955382e-38
0.009414 0.047071 -3.012779 1.874089839955382e-38
0.009378 0.056268 -3.001193 1.874089839955382e-38
0.009436 0.066053 -3.019801 1.874089839955382e-38
0.009467 0.075734 -3.029568 1.874089839955382e-38
0.009451 0.085062 -3.024636 1.874089839955382e-38
0.009410 0.094097 -3.011317 1.874089839955382e-38
0.009464 0.104108 -3.028819 1.874089839955382e-38
0.009419 0.113031 -3.014382 1.874089839955382e-38
0.009393 0.122106 -3.005901 1.874089839955382e-38
0.009422 0.131911 -3.015330 1.874089839955382e-38
0.009451 0.141762 -3.024465 1.874089839955382e-38
0.009412 0.150584 -3.011897 1.874089839955382e-38
0.009381 0.159476 -3.002114 1.874089839955382e-38
0.009451 0.170125 -3.024652 1.874089839955382e-38
0.009398 0.178571 -3.007722 1.874089839955382e-38
0.009426 0.188529 -3.016679 1.874089839955382e-38
0.009456 0.198570 -3.026049 1.874089839955382e-38
0.009413 0.207092 -3.012464 1.874089839955382e-38
0.009424 0.216743 -3.015764 1.874089839955382e-38
0.009410 0.225852 -3.011571 1.874089839955382e-38
0.009461 0.236515 -3.027610 1.874089839955382e-38
0.009439 0.245415 -3.020703 1.874089839955382e-38
0.009482 0.256020 -3.034524 1.874089839955382e-38
0.009426 0.263915 -3.016386 1.874089839955382e-38
0.009441 0.273799 -3.021447 1.874089839955382e-38
0.009427 0.282821 -3.016975 1.874089839955382e-38
0.009399 0.291362 -3.007818 1.874089839955382e-38
0.009484 0.303488 -3.035094 1.874089839955382e-38
0.009543 0.314917 -3.053955 1.874089839955382e-38
0.009488 0.322592 -3.036376 1.874089839955382e-38
0.009452 0.330828 -3.024929 1.874089839955382e-38
0.009408 0.338696 -3.010847 1.874089839955382e-38
0.009492 0.351209 -3.037701 1.874089839955382e-38
0.009461 0.359514 -3.027699 1.874089839955382e-38
0.009485 0.369932 -3.035559 1.874089839955382e-38
0.009532 0.381271 -3.050383 1.874089839955382e-38
0.009582 0.392848 -3.066350 1.874089839955382e-38
0.009562 0.401618 -3.060168 1.874089839955382e-38
0.009585 0.412148 -3.067368 1.874089839955382e-38
0.009615 0.423055 -3.076985 1.874089839955382e-38
0.009604 0.432176 -3.073472 1.874089839955382e-38
0.009640 0.443445 -3.085055 1.874089839955382e-38
0.009654 0.453744 -3.089542 1.874089839955382e-38
0.009682 0.464751 -3.098558 1.874089839955382e-38
0.009738 0.477154 -3.116327 1.874089839955382e-38
0.009735 0.486769 -3.115544 1.874089839955382e-38
0.009701 0.494757 -3.104579 1.874089839955382e-38
0.009779 0.508500 -3.129452 1.874089839955382e-38
0.009788 0.518764 -3.132383 1.874089839955382e-38
0.009787 0.528477 -3.131939 1.874089839955382e-38
0.009804 0.539199 -3.137383 1.874089839955382e-38
0.009791 0.548293 -3.133329 1.874089839955382e-38
0.009847 0.561293 -3.151345 1.874089839955382e-38
0.009739 0.564847 -3.116621 1.874089839955382e-38
0.009755 0.575543 -3.121813 1.874089839955382e-38
0.009779 0.586757 -3.129592 1.874089839955382e-38
0.009764 0.595591 -3.124633 1.874089839955382e-38
0.009681 0.600223 -3.098144 4.389633300525313e-39
0.009657 0.608422 -3.090618 4.389633300525313e-39
0.009716 0.621800 -3.109219 4.389633300525313e-39
0.009650 0.627241 -3.088176 4.389633300525313e-39
0.009603 0.633785 -3.073114 4.389633300525313e-39
0.009618 0.644389 -3.077896 4.389633300525313e-39
0.009620 0.654166 -3.078648 4.389633300525313e-39
0.009601 0.662458 -3.072490 4.389633300525313e-39
0.009657 0.675982 -3.090425 4.389633300525313e-39
0.009571 0.679519 -3.062838 4.389633300525313e-39
0.009534 0.686432 -3.051024 4.389633300525313e-39
0.009619 0.702175 -3.078250 4.389633300525313e-39
0.009610 0.711128 -3.075368 4.389633300525313e-39
0.009539 0.715454 -3.052820 4.389633300525313e-39
0.009546 0.725486 -3.054896 4.389633300525313e-39
0.009594 0.738749 -3.070344 4.389633300525313e-39
0.009593 0.748250 -3.069962 4.389633300525313e-39
0.009573 0.756269 -3.063585 4.389633300525313e-39
0.009622 0.769770 -3.079298 4.389633300525313e-39
0.009653 0.781868 -3.089082 4.389633300525313e-39
0.009647 0.791056 -3.087266 4.389633300525313e-39
0.009640 0.800106 -3.084967 4.389633300525313e-39
0.009682 0.813269 -3.098387 4.389633300525313e-39
0.015242 1.295607 -4.877926 1.880790849211783e-38
0.015251 1.311585 -4.880664 1.880790849211783e-38
0.015253 1.326970 -4.881155 1.880790849211783e-38
0.015232 1.340422 -4.874610 1.880790849211783e-38
0.015242 1.356550 -4.877833 1.880790849211783e-38
0.015247 1.372198 -4.879274 1.880790849211783e-38
0.015206 1.383714 -4.866156 1.880790849211783e-38
0.015165 1.395151 -4.853045 1.880790849211783e-38
0.015238 1.417136 -4.876515 1.880790849211783e-38
0.015261 1.434551 -4.883927 1.880790849211783e-38
0.015174 1.441548 -4.856087 1.880790849211783e-38
0.015224 1.461539 -4.872143 1.880790849211783e-38
0.015233 1.477649 -4.875065 1.880790849211783e-38
0.015229 1.492457 -4.873678 1.880790849211783e-38
0.015274 1.512170 -4.888171 1.880790849211783e-38
0.015213 1.521255 -4.868362 1.880790849211783e-38
0.015226 1.537853 -4.872752 1.880790849211783e-38
0.015285 1.559082 -4.891587 1.880790849211783e-38
0.015290 1.574859 -4.893114 1.880790849211783e-38
0.015246 1.585532 -4.878910 1.880790849211783e-38
0.015233 1.599501 -4.875017 1.880790849211783e-38
0.015201 1.611319 -4.864707 1.880790849211783e-38
0.015267 1.633612 -4.885918 1.880790849211783e-38
0.015276 1.649833 -4.888743 1.880790849211783e-38
0.015274 1.664831 -4.887927 1.880790849211783e-38
0.015245 1.676921 -4.878663 1.880790849211783e-38
0.015262 1.694113 -4.884277 1.880790849211783e-38
0.015259 1.709055 -4.883363 1.880790849211783e-38
0.015180 1.715333 -4.857926 1.880790849211783e-38
0.015206 1.733505 -4.866327 1.880790849211783e-38
0.015234 1.751938 -4.875306 1.880790849211783e-38
0.015253 1.769309 -4.881202 1.880790849211783e-38
0.015230 1.781931 -4.874006 1.880790849211783e-38
0.015295 1.804784 -4.894678 1.880790849211783e-38
0.015244 1.814093 -4.878582 1.880790849211783e-38
0.015250 1.829996 -4.880337 1.880790849211783e-38
0.015221 1.841694 -4.870943 1.880790849211783e-38
0.015218 1.856609 -4.870141 1.880790849211783e-38
0.015243 1.874856 -4.878022 1.880790849211783e-38
0.015188 1.883314 -4.860512 1.880790849211783e-38
0.015223 1.902850 -4.871644 1.880790849211783e-38
0.015260 1.922783 -4.883607 1.880790849211783e-38
0.015228 1.933945 -4.873279 1.880790849211783e-38
0.017795 -1.138865 -2.847367 4.333194603576166e-39
0.017990 -1.142338 -2.878537 4.333194603576166e-39
0.018151 -1.143532 -2.904415 4.333194603576166e-39
0.018297 -1.143579 -2.927773 4.333194603576166e-39
0.018385 -1.139889 -2.941859 4.333194603576166e-39
0.018622 -1.145265 -2.979764 4.333194603576166e-39
0.018600 -1.134602 -2.976218 4.333194603576166e-39
0.018808 -1.137885 -3.009497 4.333194603576166e-39
0.019006 -1.140380 -3.041230 4.333194603576166e-39
0.019125 -1.137961 -3.060282 4.333194603576166e-39
0.019361 -1.142270 -3.097903 4.333194603576166e-39
0.019437 -1.137057 -3.110120 4.333194603576166e-39
0.019598 -1.136690 -3.135921 4.333194603576166e-39
0.019876 -1.142843 -3.180312 4.333194603576166e-39
0.019992 -1.139556 -3.198981 4.333194603576166e-39
0.020199 -1.141251 -3.232091 4.333194603576166e-39
0.020442 -1.144765 -3.270990 4.333194603576166e-39
0.020563 -1.141244 -3.290307 4.333194603576166e-39
0.020785 -1.143187 -3.325872 4.333194603576166e-39
0.020841 -1.135837 -3.334805 4.333194603576166e-39
0.021238 -1.146834 -3.398269 4.333194603576166e-39
0.021362 -1.142887 -3.418222 4.333194603576166e-39
0.021533 -1.141259 -3.445557 4.333194603576166e-39
0.021658 -1.137047 -3.465533 4.333194603576166e-39
0.021842 -1.135774 -3.494939 4.333194603576166e-39
0.022115 -1.138922 -3.538650 4.333194603576166e-39
0.022335 -1.139083 -3.573848 4.333194603576166e-39
0.022586 -1.140571 -3.613947 4.333194603576166e-39
0.022804 -1.140220 -3.648965 4.333194603576166e-39
0.022992 -1.138101 -3.678975 4.333194603576166e-39
0.023271 -1.140261 -3.723567 4.333194603576166e-39
0.023472 -1.138408 -3.755841 4.333194603576166e-39
0.023821 -1.143404 -3.811619 4.333194603576166e-39
0.024010 -1.140497 -3.841949 4.333194603576166e-39
0.024253 -1.139911 -3.880827 4.333194603576166e-39
0.024555 -1.141788 -3.929014 4.333194603576166e-39
0.024797 -1.140683 -3.967875 4.333194603576166e-39
0.025122 -1.143067 -4.019864 4.333194603576166e-39
0.025333 -1.139973 -4.053525 4.333194603576166e-39
0.025641 -1.141030 -4.102871 4.333194603576166e-39
0.025898 -1.139511 -4.143973 4.333194603576166e-39
0.026418 -1.149165 -4.227114 4.333194603576166e-39
0.026605 -1.143996 -4.257032 4.333194603576166e-39
0.026916 -1.143925 -4.306849 4.333194603576166e-39
0.027103 -1.138333 -4.336817 4.333194603576166e-39
0.027481 -1.140448 -4.397221 4.333194603576166e-39
0.027980 -1.147194 -4.477176 4.333194603576166e-39
0.028057 -1.136324 -4.489502 4.333194603576166e-39
0.028610 -1.144385 -4.577867 4.333194603576166e-39
0.028927 -1.142626 -4.628688 4.333194603576166e-39
0.029272 -1.141601 -4.683827 4.333194603576166e-39
0.029674 -1.142448 -4.748174 4.333194603576166e-39
0.029990 -1.139622 -4.798749 4.333194603576166e-39
0.030544 -1.145408 -4.887422 4.333194603576166e-39
0.030437 -1.126175 -4.870294 1.880790849211783e-38
0.030454 -1.111579 -4.873024 1.880790849211783e-38
0.030566 -1.100394 -4.890987 1.880790849211783e-38
0.030502 -1.082825 -4.880687 1.880790849211783e-38
0.030449 -1.065705 -4.872143 1.880790849211783e-38
0.030499 -1.052231 -4.880260 1.880790849211783e-38
0.030495 -1.036819 -4.879496 1.880790849211783e-38
0.030420 -1.019076 -4.867573 1.880790849211783e-38
0.030456 -1.005044 -4.873290 1.880790849211783e-38
0.030570 -0.993530 -4.891574 1.880790849211783e-38
0.030460 -0.974720 -4.873946 1.880790849211783e-38
0.030470 -0.959810 -4.875572 1.880790849211783e-38
0.030588 -0.948223 -4.894401 1.880790849211783e-38
0.030483 -0.929736 -4.877651 1.880790849211783e-38
0.030497 -0.914905 -4.879840 1.880790849211783e-38
0.030502 -0.899796 -4.880598 1.880790849211783e-38
0.030414 -0.882004 -4.866574 1.880790849211783e-38
0.030495 -0.869119 -4.879613 1.880790849211783e-38
0.030428 -0.851998 -4.868906 1.880790849211783e-38
0.030446 -0.837279 -4.871787 1.880790849211783e-38
0.030550 -0.824852 -4.888361 1.880790849211783e-38
0.030498 -0.808195 -4.880018 1.880790849211783e-38
0.030438 -0.791396 -4.870477 1.880790849211783e-38
0.030524 -0.778363 -4.884196 1.880790849211783e-38
0.030528 -0.763209 -4.884886 1.880790849211783e-38
0.030529 -0.747953 -4.884938 1.880790849211783e-38
0.030403 -0.729676 -4.864857 1.880790849211783e-38
0.030649 -0.720253 -4.904202 1.880790849211783e-38
0.030443 -0.700181 -4.871176 1.880790849211783e-38
0.030472 -0.685611 -4.875802 1.880790849211783e-38
0.030536 -0.671785 -4.886060 1.880790849211783e-38
0.030409 -0.653795 -4.865800 1.880790849211783e-38
0.030580 -0.642190 -4.893223 1.880790849211783e-38
0.030465 -0.624538 -4.874794 1.880790849211783e-38
0.030521 -0.610416 -4.883679 1.880790849211783e-38
0.030573 -0.596181 -4.892087 1.880790849211783e-38
0.030521 -0.579894 -4.883667 1.880790849211783e-38
0.030445 -0.563228 -4.871508 1.880790849211783e-38
0.030596 -0.550721 -4.895645 1.880790849211783e-38
0.030493 -0.533631 -4.879264 1.880790849211783e-38
0.030525 -0.518927 -4.884367 1.880790849211783e-38
0.030555 -0.504159 -4.889162 1.880790849211783e-38
0.030465 -0.487434 -4.874689 1.880790849211783e-38
0.030456 -0.472060 -4.873229 1.880790849211783e-38
0.030493 -0.457388 -4.879152 1.880790849211783e-38
0.030498 -0.442225 -4.880068 1.880790849211783e-38
0.030515 -0.427217 -4.882823 1.880790849211783e-38
0.030605 -0.413167 -4.897149 1.880790849211783e-38
0.030422 -0.395491 -4.867931 1.880790849211783e-38
0.030456 -0.380701 -4.873325 1.880790849211783e-38
0.030473 -0.365675 -4.876016 1.880790849211783e-38
0.030472 -0.350425 -4.875827 1.880790849211783e-38
0.030593 -0.336522 -4.895210 1.880790849211783e-38
0.019199 -0.201593 -3.072106 1.874089839955382e-38
0.019245 -0.192448 -3.079383 1.874089839955382e-38
0.019172 -0.182136 -3.067775 1.874089839955382e-38
0.019076 -0.171681 -3.052333 1.874089839955382e-38
0.019070 -0.162093 -3.051382 1.874089839955382e-38
0.018974 -0.151794 -3.036092 1.874089839955382e-38
0.019052 -0.142892 -3.048585 1.874089839955382e-38
0.018949 -0.132645 -3.032108 1.874089839955382e-38
0.018930 -0.123044 -3.029002 1.874089839955382e-38
0.019009 -0.114054 -3.041667 1.874089839955382e-38
0.018987 -0.104428 -3.038118 1.874089839955382e-38
0.018800 -0.094002 -3.008276 1.874089839955382e-38
0.018908 -0.085087 -3.025523 1.874089839955382e-38
0.018848 -0.075393 -3.015927 1.874089839955382e-38
0.019043 -0.066650 -3.047073 1.874089839955382e-38
0.018805 -0.056416 -3.009049 1.874089839955382e-38
0.018860 -0.047151 -3.017884 1.874089839955382e-38
0.018917 -0.037833 -3.026864 1.874089839955382e-38
0.018795 -0.028193 -3.007463 1.874089839955382e-38
0.018753 -0.018753 -3.000707 1.874089839955382e-38
0.018812 -0.009406 -3.010074 1.874089839955382e-38
0.018922 0.000000 -3.027716 1.874089839955382e-38
0.018776 0.009388 -3.004391 1.874089839955382e-38
0.018741 0.018741 -2.998721 1.874089839955382e-38
0.018776 0.028163 -3.004317 1.874089839955382e-38
0.018764 0.037528 -3.002457 1.874089839955382e-38
0.018761 0.046902 -3.001929 1.874089839955382e-38
0.018819 0.056456 -3.011183 1.874089839955382e-38
0.018859 0.066006 -3.017648 1.874089839955382e-38
0.018890 0.075559 -3.022592 1.874089839955382e-38
0.018735 0.084309 -2.997865 1.874089839955382e-38
0.018820 0.094102 -3.011480 1.874089839955382e-38
0.018742 0.103081 -2.998930 1.874089839955382e-38
0.018920 0.113518 -3.027360 1.874089839955382e-38
0.018832 0.122408 -3.013342 1.874089839955382e-38
0.018749 0.131246 -3.000121 1.874089839955382e-38
0.018851 0.141380 -3.016323 1.874089839955382e-38
0.018711 0.149686 -2.993938 1.874089839955382e-38
0.018793 0.159744 -3.007155 1.874089839955382e-38
0.018763 0.168863 -3.002229 1.874089839955382e-38
0.018776 0.178375 -3.004418 1.874089839955382e-38
0.018933 0.189328 -3.029470 1.874089839955382e-38
0.018927 0.198729 -3.028464 1.874089839955382e-38
0.018930 0.208226 -3.028952 1.874089839955382e-38
0.018876 0.217071 -3.020339 1.874089839955382e-38
0.018821 0.225855 -3.011614 1.874089839955382e-38
0.018883 0.236036 -3.021471 1.874089839955382e-38
0.018874 0.245362 -3.020054 1.874089839955382e-38
0.018822 0.254104 -3.011814 1.874089839955382e-38
0.018872 0.264207 -3.019721 1.874089839955382e-38
0.018890 0.273910 -3.022673 1.874089839955382e-38
0.018754 0.281307 -3.000822 1.874089839955382e-38
0.018834 0.291929 -3.013677 1.874089839955382e-38
0.018890 0.302233 -3.022546 1.874089839955382e-38
0.018890 0.311687 -3.022634 1.874089839955382e-38
0.018772 0.319118 -3.003679 1.874089839955382e-38
0.018832 0.329564 -3.013374 1.874089839955382e-38
0.018882 0.339871 -3.021295 1.874089839955382e-38
0.018975 0.351044 -3.036274 1.874089839955382e-38
0.019016 0.361304 -3.042774 1.874089839955382e-38
0.019056 0.371592 -3.049180 1.874089839955382e-38
0.019050 0.380994 -3.048167 1.874089839955382e-38
0.019094 0.391418 -3.055185 1.874089839955382e-38
0.019069 0.400443 -3.051210 1.874089839955382e-38
0.019273 0.414363 -3.083851 1.874089839955382e-38
0.019195 0.422288 -3.071401 1.874089839955382e-38
0.019147 0.430797 -3.063661 1.874089839955382e-38
0.019335 0.444704 -3.093811 1.874089839955382e-38
