# .PCD v.7 - Exported by BlenSor
VERSION .7
FIELDS x y z rgb
SIZE 4 4 4 4
TYPE F F F F
COUNT 1 1 1 1
WIDTH 929
HEIGHT 1
VIEWPOINT 0 0 0 1 0 0 0
POINTS 929
DATA ascii
-0.199157 -0.537724 -3.186737 1.873467803567068e-38
-0.198560 -0.526185 -3.177195 1.873467803567068e-38
-0.198710 -0.516646 -3.179584 1.873467803567068e-38
-0.197907 -0.504664 -3.166744 1.873467803567068e-38
-0.197301 -0.493253 -3.157047 1.873467803567068e-38
-0.196252 -0.480817 -3.140250 1.873467803567068e-38
-0.196948 -0.472675 -3.151389 1.873467803567068e-38
-0.196550 -0.461892 -3.145024 1.873467803567068e-38
-0.196841 -0.452734 -3.149679 1.873467803567068e-38
-0.196156 -0.441351 -3.138722 1.873467803567068e-38
-0.196749 -0.432849 -3.148216 1.873467803567068e-38
-0.194148 -0.417418 -3.106586 1.873467803567068e-38
-0.196530 -0.412714 -3.144712 1.873467803567068e-38
-0.195657 -0.401097 -3.130736 1.873467803567068e-38
-0.196640 -0.393280 -3.146463 1.873467803567068e-38
-0.195356 -0.380944 -3.125921 1.873467803567068e-38
-0.195557 -0.371559 -3.129138 1.873467803567068e-38
-0.194586 -0.359984 -3.113595 1.873467803567068e-38
-0.195474 -0.351853 -3.127806 1.873467803567068e-38
-0.194826 -0.340946 -3.117440 1.873467803567068e-38
-0.195170 -0.331790 -3.122948 1.873467803567068e-38
-0.194930 -0.321634 -3.119096 1.873467803567068e-38
-0.193925 -0.310280 -3.103017 1.873467803567068e-38
-0.195578 -0.303146 -3.129475 1.873467803567068e-38
-0.195607 -0.293410 -3.129933 1.873467803567068e-38
-0.195447 -0.283398 -3.127372 1.873467803567068e-38
-0.195127 -0.273178 -3.122251 1.873467803567068e-38
-0.195744 -0.264254 -3.132125 1.873467803567068e-38
-0.195560 -0.254229 -3.129190 1.873467803567068e-38
-0.197000 -0.246250 -3.152222 1.873467803567068e-38
-0.195732 -0.234878 -3.131930 1.873467803567068e-38
-0.196261 -0.225700 -3.140404 1.873467803567068e-38
-0.196778 -0.216456 -3.148669 1.873467803567068e-38
-0.196788 -0.206628 -3.148836 1.873467803567068e-38
-0.303405 -0.303405 -4.854831 1.880790849211783e-38
-0.304624 -0.289393 -4.874337 1.880790849211783e-38
-0.305334 -0.274801 -4.885699 1.880790849211783e-38
-0.304320 -0.258672 -4.869469 1.880790849211783e-38
-0.304878 -0.243903 -4.878400 1.880790849211783e-38
-0.304739 -0.228554 -4.876166 1.880790849211783e-38
-0.303997 -0.212798 -4.864306 1.880790849211783e-38
-0.304214 -0.197739 -4.867770 1.880790849211783e-38
-0.303586 -0.182151 -4.857720 1.880790849211783e-38
-0.304935 -0.167714 -4.879304 1.880790849211783e-38
-0.305743 -0.152871 -4.892237 1.880790849211783e-38
-0.303819 -0.136719 -4.861457 1.880790849211783e-38
-0.303828 -0.121531 -4.861588 1.880790849211783e-38
-0.304701 -0.106645 -4.875570 1.880790849211783e-38
-0.306129 -0.091839 -4.898420 1.880790849211783e-38
-0.305257 -0.076314 -4.884468 1.880790849211783e-38
-0.305787 -0.061157 -4.892938 1.880790849211783e-38
-0.304700 -0.045705 -4.875546 1.880790849211783e-38
-0.305035 -0.030503 -4.880904 1.880790849211783e-38
-0.304237 -0.015212 -4.868138 1.880790849211783e-38
-0.305243 0.000000 -4.884242 1.880790849211783e-38
-0.305148 0.015257 -4.882712 1.880790849211783e-38
-0.304241 0.030424 -4.868211 1.880790849211783e-38
-0.303826 0.045574 -4.861562 1.880790849211783e-38
-0.303685 0.060737 -4.859313 1.880790849211783e-38
-0.304962 0.076240 -4.879736 1.880790849211783e-38
-0.305666 0.091700 -4.891012 1.880790849211783e-38
-0.304979 0.106743 -4.880010 1.880790849211783e-38
-0.304282 0.121713 -4.868852 1.880790849211783e-38
-0.305584 0.137513 -4.889699 1.880790849211783e-38
-0.304403 0.152202 -4.870800 1.880790849211783e-38
-0.305274 0.167901 -4.884738 1.880790849211783e-38
-0.303970 0.182382 -4.863864 1.880790849211783e-38
-0.304287 0.197787 -4.868944 1.880790849211783e-38
-0.305803 0.214062 -4.893190 1.880790849211783e-38
-0.304910 0.228682 -4.878902 1.880790849211783e-38
-0.304639 0.243711 -4.874573 1.880790849211783e-38
-0.303839 0.258263 -4.861778 1.880790849211783e-38
-0.305740 0.275166 -4.892190 1.880790849211783e-38
-0.200944 0.190897 -3.215340 7.318701619475655e-41
-0.200416 0.200416 -3.206881 7.318701619475655e-41
-0.199881 0.209875 -3.198318 7.318701619475655e-41
-0.198954 0.218849 -3.183486 7.318701619475655e-41
-0.199246 0.229133 -3.188159 7.318701619475655e-41
-0.199022 0.238826 -3.184579 7.318701619475655e-41
-0.198917 0.248646 -3.182900 7.318701619475655e-41
-0.199193 0.258951 -3.187322 7.318701619475655e-41
-0.198340 0.267758 -3.173659 7.318701619475655e-41
-0.198241 0.277538 -3.172083 7.318701619475655e-41
-0.198444 0.287744 -3.175330 7.318701619475655e-41
-0.198114 0.297171 -3.170047 7.318701619475655e-41
-0.197001 0.305352 -3.152247 7.318701619475655e-41
-0.197123 0.315397 -3.154196 7.318701619475655e-41
-0.196519 0.324257 -3.144534 7.318701619475655e-41
-0.196656 0.334315 -3.146718 7.318701619475655e-41
-0.197226 0.345146 -3.155843 7.318701619475655e-41
-0.196177 0.353119 -3.139060 7.318701619475655e-41
-0.195680 0.362009 -3.131109 7.318701619475655e-41
-0.195928 0.372262 -3.135065 7.318701619475655e-41
-0.196595 0.383361 -3.145748 7.318701619475655e-41
-0.195751 0.391502 -3.132238 7.318701619475655e-41
-0.196746 0.403330 -3.148163 7.318701619475655e-41
-0.196648 0.412960 -3.146588 7.318701619475655e-41
-0.195208 0.419698 -3.123557 7.318701619475655e-41
-0.196895 0.433170 -3.150551 7.318701619475655e-41
-0.197364 0.444069 -3.158049 7.318701619475655e-41
-0.198152 0.455749 -3.170656 7.318701619475655e-41
-0.198168 0.465696 -3.170920 7.318701619475655e-41
-0.304606 0.731055 -4.874048 1.880790849211783e-38
-0.303314 0.743118 -4.853363 1.880790849211783e-38
-0.303940 0.759851 -4.863394 1.880790849211783e-38
-0.304295 0.775952 -4.869065 1.880790849211783e-38
-0.304350 0.791311 -4.869954 1.880790849211783e-38
-0.304224 0.806194 -4.867935 1.880790849211783e-38
-0.305712 0.825424 -4.891748 1.880790849211783e-38
-0.304800 0.838200 -4.877151 1.880790849211783e-38
-0.304450 0.852461 -4.871552 1.880790849211783e-38
-0.304944 0.869092 -4.879460 1.880790849211783e-38
-0.305026 0.884576 -4.880767 1.880790849211783e-38
-0.304651 0.898721 -4.874767 1.880790849211783e-38
-0.303877 0.911630 -4.862372 1.880790849211783e-38
-0.305111 0.930589 -4.882124 1.880790849211783e-38
-0.304797 0.944871 -4.877100 1.880790849211783e-38
-0.305127 0.961151 -4.882385 1.880790849211783e-38
-0.306064 0.979404 -4.897369 1.880790849211783e-38
-0.304393 0.989277 -4.870636 1.880790849211783e-38
-0.305875 1.009387 -4.894348 1.880790849211783e-38
-0.305246 1.022575 -4.884291 1.880790849211783e-38
-0.304780 1.036251 -4.876825 1.880790849211783e-38
-0.304853 1.051741 -4.877989 1.880790849211783e-38
-0.304052 1.064180 -4.865173 1.880790849211783e-38
-0.304871 1.082291 -4.878279 1.880790849211783e-38
-0.304923 1.097723 -4.879116 1.880790849211783e-38
-0.304459 1.111275 -4.871692 1.880790849211783e-38
-0.303777 1.123976 -4.860783 1.880790849211783e-38
-0.304986 1.143699 -4.880131 1.880790849211783e-38
-0.304844 1.158406 -4.877849 1.880790849211783e-38
-0.304866 1.173734 -4.878203 1.880790849211783e-38
-0.304838 1.188867 -4.877752 1.880790849211783e-38
-0.304088 1.201147 -4.865752 1.880790849211783e-38
-0.305768 1.223072 -4.892636 1.880790849211783e-38
-0.304914 1.234902 -4.878972 1.880790849211783e-38
-0.304411 1.248083 -4.870915 1.880790849211783e-38
-0.304650 1.264296 -4.874743 1.880790849211783e-38
-0.305390 1.282638 -4.886587 1.880790849211783e-38
-0.305270 1.297396 -4.884663 1.880790849211783e-38
-0.305321 1.312881 -4.885485 1.880790849211783e-38
-0.304519 1.324657 -4.872651 1.880790849211783e-38
-0.305128 1.342565 -4.882402 1.880790849211783e-38
-0.304828 1.356484 -4.877595 1.880790849211783e-38
-0.305379 1.374205 -4.886411 1.880790849211783e-38
-0.305664 1.390773 -4.890978 1.880790849211783e-38
-0.305651 1.405993 -4.890759 1.880790849211783e-38
-0.306232 1.423979 -4.900064 1.880790849211783e-38
-0.305203 1.434452 -4.883589 1.880790849211783e-38
-0.304697 1.447312 -4.875504 1.880790849211783e-38
-0.304630 1.462225 -4.874430 1.880790849211783e-38
-0.305232 1.480377 -4.884068 1.880790849211783e-38
-0.305318 1.496059 -4.885439 1.880790849211783e-38
-0.305492 1.512185 -4.888219 1.880790849211783e-38
-0.304472 1.522359 -4.871895 1.880790849211783e-38
-0.305227 1.541399 -4.883987 1.880790849211783e-38
-0.305546 1.558286 -4.889089 1.880790849211783e-38
-0.304516 1.568258 -4.872606 1.880790849211783e-38
-0.305685 1.589564 -4.891314 1.880790849211783e-38
-0.306080 1.606921 -4.897634 1.880790849211783e-38
-0.304564 1.614188 -4.873368 1.880790849211783e-38
-0.304861 1.631006 -4.878122 1.880790849211783e-38
-0.304463 1.644099 -4.871751 1.880790849211783e-38
-0.304984 1.662165 -4.880098 1.880790849211783e-38
-0.304054 1.672296 -4.865208 1.880790849211783e-38
-0.303772 1.685935 -4.860699 1.880790849211783e-38
-0.304510 1.705258 -4.872512 1.880790849211783e-38
-0.305210 1.724435 -4.883703 1.880790849211783e-38
-0.304739 1.737013 -4.876175 1.880790849211783e-38
-0.304897 1.753156 -4.878694 1.880790849211783e-38
-0.304799 1.767833 -4.877130 1.880790849211783e-38
-0.305109 1.784888 -4.882092 1.880790849211783e-38
-0.304972 1.799332 -4.879892 1.880790849211783e-38
-0.304802 1.813575 -4.877187 1.880790849211783e-38
-0.304331 1.825983 -4.869635 1.880790849211783e-38
-0.305604 1.848903 -4.890008 1.880790849211783e-38
-0.304330 1.856412 -4.869624 1.880790849211783e-38
-0.304490 1.872614 -4.872189 1.880790849211783e-38
-0.305723 1.895483 -4.891919 1.880790849211783e-38
-0.304026 1.900165 -4.864769 1.880790849211783e-38
-0.304381 1.917601 -4.870445 1.880790849211783e-38
-0.305029 1.936931 -4.880805 1.880790849211783e-38
-0.170215 -1.146712 -2.866986 4.333194603576166e-39
-0.170175 -1.137487 -2.866314 4.333194603576166e-39
-0.172066 -1.141072 -2.898167 4.333194603576166e-39
-0.173015 -1.138255 -2.914140 4.333194603576166e-39
-0.174311 -1.137606 -2.935966 4.333194603576166e-39
-0.176132 -1.140220 -2.966638 4.333194603576166e-39
-0.177243 -1.138086 -2.985357 4.333194603576166e-39
-0.179406 -1.142535 -3.021795 4.333194603576166e-39
-0.178510 -1.127430 -3.006695 4.389633300525313e-39
-0.178843 -1.120124 -3.012313 4.389633300525313e-39
-0.180329 -1.119941 -3.037344 4.389633300525313e-39
-0.179730 -1.106756 -3.027242 4.389633300525313e-39
-0.180899 -1.104433 -3.046930 4.389633300525313e-39
-0.181855 -1.100704 -3.063047 4.389633300525313e-39
-0.183000 -1.097999 -3.082322 4.389633300525313e-39
-0.182677 -1.086446 -3.076880 4.389633300525313e-39
-0.184492 -1.087534 -3.107460 4.389633300525313e-39
-0.184665 -1.078834 -3.110374 4.389633300525313e-39
-0.185692 -1.075061 -3.127674 4.389633300525313e-39
-0.185925 -1.066622 -3.131592 4.389633300525313e-39
-0.186781 -1.061700 -3.146004 4.389633300525313e-39
-0.187749 -1.057323 -3.162313 4.389633300525313e-39
-0.188489 -1.051572 -3.174783 4.389633300525313e-39
-0.188507 -1.041750 -3.175084 4.389633300525313e-39
-0.188076 -1.029471 -3.167828 4.389633300525313e-39
-0.188487 -1.021799 -3.174747 4.389633300525313e-39
-0.189012 -1.014694 -3.183580 4.389633300525313e-39
-0.189945 -1.009708 -3.199304 1.873467803567068e-38
-0.189688 -0.998360 -3.194980 1.873467803567068e-38
-0.190414 -0.992156 -3.207198 1.873467803567068e-38
-0.189577 -0.977820 -3.193110 1.873467803567068e-38
-0.190668 -0.973409 -3.211477 1.873467803567068e-38
-0.190528 -0.962667 -3.209119 1.873467803567068e-38
-0.191174 -0.955871 -3.220006 1.873467803567068e-38
-0.190839 -0.944149 -3.214352 1.873467803567068e-38
-0.189460 -0.927355 -3.191126 1.873467803567068e-38
-0.189237 -0.916306 -3.187377 1.873467803567068e-38
-0.190871 -0.914174 -3.214906 1.873467803567068e-38
-0.190476 -0.902254 -3.208245 1.873467803567068e-38
-0.189910 -0.889580 -3.198717 1.873467803567068e-38
-0.190149 -0.880688 -3.202730 1.873467803567068e-38
-0.189550 -0.867941 -3.192656 1.873467803567068e-38
-0.188874 -0.854904 -3.181265 1.873467803567068e-38
-0.190373 -0.851668 -3.206508 1.873467803567068e-38
-0.189615 -0.838298 -3.193745 1.873467803567068e-38
-0.189954 -0.829800 -3.199459 1.873467803567068e-38
-0.190047 -0.820202 -3.201016 1.873467803567068e-38
-0.190408 -0.811741 -3.207107 1.873467803567068e-38
-0.189940 -0.799747 -3.199217 1.873467803567068e-38
-0.190889 -0.793698 -3.215210 1.873467803567068e-38
-0.189918 -0.779665 -3.198855 1.873467803567068e-38
-0.189475 -0.767874 -3.191393 1.873467803567068e-38
-0.188675 -0.754702 -3.177917 1.873467803567068e-38
-0.187958 -0.741941 -3.165840 1.873467803567068e-38
-0.188997 -0.736095 -3.183343 1.873467803567068e-38
-0.189741 -0.729003 -3.195858 1.873467803567068e-38
-0.188834 -0.715581 -3.180588 1.873467803567068e-38
-0.189022 -0.706347 -3.183763 1.873467803567068e-38
-0.188699 -0.695207 -3.178317 1.873467803567068e-38
-0.188235 -0.683591 -3.170504 1.873467803567068e-38
-0.187835 -0.672251 -3.163761 1.873467803567068e-38
-0.187452 -0.661015 -3.157313 1.873467803567068e-38
-0.188043 -0.653203 -3.167273 1.873467803567068e-38
-0.187644 -0.641940 -3.160547 1.873467803567068e-38
-0.188873 -0.636203 -3.181243 1.873467803567068e-38
-0.188059 -0.623565 -3.167542 1.873467803567068e-38
-0.187247 -0.611017 -3.153862 1.873467803567068e-38
-0.187625 -0.602377 -3.160233 1.873467803567068e-38
-0.188630 -0.595675 -3.177161 1.873467803567068e-38
-0.187681 -0.582799 -3.161170 1.873467803567068e-38
-0.188037 -0.574009 -3.167170 1.873467803567068e-38
-0.187436 -0.562309 -3.157047 1.873467803567068e-38
-0.187056 -0.551322 -3.150637 1.873467803567068e-38
-0.187541 -0.542881 -3.158805 1.873467803567068e-38
-0.187024 -0.531541 -3.150099 1.873467803567068e-38
-0.185742 -0.518122 -3.128506 1.873467803567068e-38
-0.186067 -0.509236 -3.133981 1.873467803567068e-38
-0.186236 -0.499896 -3.136823 1.873467803567068e-38
-0.184567 -0.485704 -3.108724 1.873467803567068e-38
-0.185107 -0.477382 -3.117821 1.873467803567068e-38
-0.184564 -0.466267 -3.108670 1.873467803567068e-38
-0.185161 -0.458031 -3.118731 1.873467803567068e-38
-0.184561 -0.446832 -3.108620 1.873467803567068e-38
-0.184732 -0.437522 -3.111491 1.873467803567068e-38
-0.185600 -0.429811 -3.126122 1.873467803567068e-38
-0.184320 -0.417146 -3.104564 1.873467803567068e-38
-0.185580 -0.410229 -3.125779 1.873467803567068e-38
-0.184988 -0.399185 -3.115810 1.873467803567068e-38
-0.184904 -0.389273 -3.114403 1.873467803567068e-38
-0.184693 -0.379107 -3.110845 1.873467803567068e-38
-0.184626 -0.369253 -3.109718 1.873467803567068e-38
-0.184772 -0.359818 -3.112164 1.873467803567068e-38
-0.184650 -0.349862 -3.110110 1.873467803567068e-38
-0.184551 -0.339963 -3.108458 1.873467803567068e-38
-0.184312 -0.329821 -3.104416 1.873467803567068e-38
-0.184442 -0.320346 -3.106609 1.873467803567068e-38
-0.183979 -0.309860 -3.098820 1.873467803567068e-38
-0.184635 -0.301246 -3.109859 1.873467803567068e-38
-0.184064 -0.290628 -3.100249 1.873467803567068e-38
-0.184378 -0.281419 -3.105540 1.873467803567068e-38
-0.184439 -0.271804 -3.106558 1.873467803567068e-38
-0.183908 -0.261343 -3.097617 1.873467803567068e-38
-0.184932 -0.253065 -3.114862 1.873467803567068e-38
-0.185137 -0.243601 -3.118316 1.873467803567068e-38
-0.184362 -0.232878 -3.105258 1.873467803567068e-38
-0.183659 -0.222324 -3.093427 1.873467803567068e-38
-0.185295 -0.214553 -3.120988 1.873467803567068e-38
-0.185029 -0.204506 -3.116503 1.873467803567068e-38
-0.185875 -0.195658 -3.130754 1.873467803567068e-38
-0.184761 -0.184761 -3.111986 1.873467803567068e-38
-0.184691 -0.174970 -3.110806 1.874089839955382e-38
-0.186241 -0.166637 -3.136922 1.874089839955382e-38
-0.186747 -0.157261 -3.145437 1.874089839955382e-38
-0.187440 -0.147979 -3.157114 1.874089839955382e-38
-0.188312 -0.138756 -3.171792 1.874089839955382e-38
-0.289821 -0.198298 -4.881539 1.880790849211783e-38
-0.289047 -0.182556 -4.868510 1.880790849211783e-38
-0.289393 -0.167543 -4.874327 1.880790849211783e-38
-0.290106 -0.152688 -4.886350 1.880790849211783e-38
-0.289041 -0.136914 -4.868412 1.880790849211783e-38
-0.290359 -0.122256 -4.890599 1.880790849211783e-38
-0.290004 -0.106843 -4.884623 1.880790849211783e-38
-0.289662 -0.091472 -4.878870 1.880790849211783e-38
-0.290219 -0.076373 -4.888251 1.880790849211783e-38
-0.289180 -0.060880 -4.870751 1.880790849211783e-38
-0.288896 -0.045615 -4.865957 1.880790849211783e-38
-0.289395 -0.030463 -4.874366 1.880790849211783e-38
-0.289533 -0.015239 -4.876695 1.880790849211783e-38
-0.288895 0.000000 -4.865950 1.880790849211783e-38
-0.289953 0.015261 -4.883763 1.880790849211783e-38
-0.288787 0.030399 -4.864120 1.880790849211783e-38
-0.289981 0.045786 -4.884239 1.880790849211783e-38
-0.288725 0.060784 -4.863079 1.880790849211783e-38
-0.289192 0.076103 -4.870944 1.880790849211783e-38
-0.289562 0.091441 -4.877186 1.880790849211783e-38
-0.289838 0.106782 -4.881828 1.880790849211783e-38
-0.289654 0.121960 -4.878732 1.880790849211783e-38
-0.290420 0.137567 -4.891637 1.880790849211783e-38
-0.289871 0.152564 -4.882393 1.880790849211783e-38
-0.288868 0.167239 -4.865496 1.880790849211783e-38
-0.288582 0.182263 -4.860683 1.880790849211783e-38
-0.289390 0.198003 -4.874277 1.880790849211783e-38
-0.289031 0.212970 -4.868235 1.880790849211783e-38
-0.289020 0.228173 -4.868045 1.880790849211783e-38
-0.289472 0.243766 -4.875671 1.880790849211783e-38
-0.288070 0.257747 -4.852057 1.880790849211783e-38
-0.289570 0.274330 -4.877325 1.880790849211783e-38
-0.290097 0.290097 -4.886195 1.880790849211783e-38
-0.289963 0.305224 -4.883933 1.880790849211783e-38
-0.191523 0.211683 -3.225877 7.318701619475655e-41
-0.190259 0.220300 -3.204588 7.318701619475655e-41
-0.189713 0.229652 -3.195388 7.318701619475655e-41
-0.189141 0.238914 -3.185752 7.318701619475655e-41
-0.189841 0.249791 -3.197551 7.318701619475655e-41
-0.187787 0.256972 -3.162960 7.318701619475655e-41
-0.188836 0.268346 -3.180626 7.318701619475655e-41
-0.188566 0.277887 -3.176078 7.318701619475655e-41
-0.188025 0.286985 -3.166955 7.318701619475655e-41
-0.188524 0.297669 -3.175365 7.318701619475655e-41
-0.188076 0.306860 -3.167814 7.318701619475655e-41
-0.188805 0.317987 -3.180093 7.318701619475655e-41
-0.187776 0.326137 -3.162763 7.318701619475655e-41
-0.188135 0.336662 -3.168809 7.318701619475655e-41
-0.187263 0.344959 -3.154135 7.318701619475655e-41
-0.186965 0.354249 -3.149108 7.318701619475655e-41
-0.186101 0.362406 -3.134550 7.318701619475655e-41
-0.185599 0.371199 -3.126109 1.874089839955382e-38
-0.185066 0.379872 -3.117121 1.874089839955382e-38
-0.185520 0.390569 -3.124779 1.874089839955382e-38
-0.186729 0.402942 -3.145134 1.874089839955382e-38
-0.184399 0.407620 -3.105896 1.874089839955382e-38
-0.186482 0.422037 -3.140967 1.874089839955382e-38
-0.185769 0.430202 -3.128967 1.874089839955382e-38
-0.186176 0.440942 -3.135814 1.874089839955382e-38
-0.185873 0.450007 -3.130708 7.318701619475655e-41
-0.186020 0.460154 -3.133187 7.318701619475655e-41
-0.187897 0.474688 -3.164810 7.318701619475655e-41
-0.288520 0.744078 -4.859630 1.880790849211783e-38
-0.290444 0.764326 -4.892032 1.880790849211783e-38
-0.288681 0.774880 -4.862336 1.880790849211783e-38
-0.289143 0.791339 -4.870126 1.880790849211783e-38
-0.289600 0.807831 -4.877818 1.880790849211783e-38
-0.289745 0.823485 -4.880260 1.880790849211783e-38
-0.288522 0.835196 -4.859669 1.880790849211783e-38
-0.288618 0.850664 -4.861283 1.880790849211783e-38
-0.289149 0.867447 -4.870224 1.880790849211783e-38
-0.290658 0.887271 -4.895638 1.880790849211783e-38
-0.289123 0.897804 -4.869795 1.880790849211783e-38
-0.289827 0.915244 -4.881650 1.880790849211783e-38
-0.288939 0.927646 -4.866685 1.880790849211783e-38
-0.288941 0.942859 -4.866715 1.880790849211783e-38
-0.289699 0.960582 -4.879497 1.880790849211783e-38
-0.289699 0.975827 -4.879484 1.880790849211783e-38
-0.289704 0.991091 -4.879567 1.880790849211783e-38
-0.290042 1.007516 -4.885275 1.880790849211783e-38
-0.289580 1.021151 -4.877486 1.880790849211783e-38
-0.289262 1.035253 -4.872126 1.880790849211783e-38
-0.290562 1.055199 -4.894026 1.880790849211783e-38
-0.290070 1.068679 -4.885740 1.880790849211783e-38
-0.289122 1.080402 -4.869766 1.880790849211783e-38
-0.288891 1.094747 -4.865887 1.880790849211783e-38
-0.290007 1.114239 -4.884686 1.880790849211783e-38
-0.290022 1.129561 -4.884936 1.880790849211783e-38
-0.290400 1.146318 -4.891304 1.880790849211783e-38
-0.289041 1.156164 -4.868407 1.880790849211783e-38
-0.289504 1.173252 -4.876202 1.880790849211783e-38
-0.290411 1.192212 -4.891475 1.880790849211783e-38
-0.288521 1.199641 -4.859653 1.880790849211783e-38
-0.289084 1.217195 -4.869126 1.880790849211783e-38
-0.290279 1.237504 -4.889253 1.880790849211783e-38
-0.290067 1.251867 -4.885682 1.880790849211783e-38
-0.289679 1.265442 -4.879161 1.880790849211783e-38
-0.288665 1.276204 -4.862075 1.880790849211783e-38
-0.289445 1.294886 -4.875213 1.880790849211783e-38
-0.290338 1.314160 -4.890247 1.880790849211783e-38
-0.289158 1.324038 -4.870371 1.880790849211783e-38
-0.289551 1.341078 -4.876996 1.880790849211783e-38
-0.290143 1.359092 -4.886971 1.880790849211783e-38
-0.288436 1.366277 -4.858220 1.880790849211783e-38
-0.289880 1.388373 -4.882540 1.880790849211783e-38
-0.290558 1.406914 -4.893964 1.880790849211783e-38
-0.289580 1.417420 -4.877493 1.880790849211783e-38
-0.289434 1.431939 -4.875033 1.880790849211783e-38
-0.290237 1.451185 -4.888551 1.880790849211783e-38
-0.288821 1.459307 -4.864705 1.880790849211783e-38
-0.289049 1.475672 -4.868544 1.880790849211783e-38
-0.288444 1.487763 -4.858349 1.880790849211783e-38
-0.289807 1.510048 -4.881310 1.880790849211783e-38
-0.290385 1.528344 -4.891051 1.880790849211783e-38
-0.288236 1.532201 -4.854844 1.880790849211783e-38
-0.289685 1.555152 -4.879255 1.880790849211783e-38
-0.289768 1.570850 -4.880659 1.880790849211783e-38
-0.289600 1.585177 -4.877815 1.880790849211783e-38
-0.290713 1.606570 -4.896562 1.880790849211783e-38
-0.289762 1.616566 -4.880547 1.880790849211783e-38
-0.289031 1.627700 -4.868235 1.880790849211783e-38
-0.289769 1.647110 -4.880673 1.880790849211783e-38
-0.288865 1.657172 -4.865439 1.880790849211783e-38
-0.290274 1.680532 -4.889170 1.880790849211783e-38
-0.289293 1.690078 -4.872644 1.880790849211783e-38
-0.289384 1.705844 -4.874188 1.880790849211783e-38
-0.289024 1.718933 -4.868124 1.880790849211783e-38
-0.289548 1.737286 -4.876940 1.880790849211783e-38
-0.288522 1.746318 -4.859667 1.880790849211783e-38
-0.288397 1.760740 -4.857560 1.880790849211783e-38
-0.289130 1.780430 -4.869899 1.880790849211783e-38
-0.289552 1.798269 -4.877009 1.880790849211783e-38
-0.289301 1.811937 -4.872782 1.880790849211783e-38
-0.289731 1.829879 -4.880025 1.880790849211783e-38
-0.290343 1.849025 -4.890331 1.880790849211783e-38
-0.289979 1.861967 -4.884198 1.880790849211783e-38
-0.290232 1.878870 -4.888466 1.880790849211783e-38
-0.289745 1.890970 -4.880270 1.880790849211783e-38
-0.289402 1.903962 -4.874491 1.880790849211783e-38
-0.289248 1.918172 -4.871896 1.880790849211783e-38
-0.290513 1.941851 -4.893203 1.880790849211783e-38
-0.159960 -1.137490 -2.843928 4.333194603576166e-39
-0.161555 -1.139859 -2.872290 4.333194603576166e-39
-0.163935 -1.147543 -2.914603 4.333194603576166e-39
-0.163956 -1.138586 -2.914987 4.333194603576166e-39
-0.166133 -1.144469 -2.953678 4.333194603576166e-39
-0.167657 -1.145660 -2.980790 4.333194603576166e-39
-0.168492 -1.142003 -2.995630 4.333194603576166e-39
-0.169420 -1.138876 -3.012117 4.333194603576166e-39
-0.171348 -1.142323 -3.046411 4.333194603576166e-39
-0.172020 -1.137246 -3.058359 4.333194603576166e-39
-0.170772 -1.119508 -3.036170 4.389633300525313e-39
-0.170449 -1.107918 -3.030419 4.389633300525313e-39
-0.173116 -1.115639 -3.077844 4.389633300525313e-39
-0.172635 -1.102945 -3.069284 4.389633300525313e-39
-0.173859 -1.101110 -3.091055 4.389633300525313e-39
-0.174644 -1.096377 -3.105005 4.389633300525313e-39
-0.175203 -1.090150 -3.114936 4.389633300525313e-39
-0.175616 -1.082967 -3.122289 4.389633300525313e-39
-0.176547 -1.078899 -3.138840 4.389633300525313e-39
-0.177159 -1.072797 -3.149720 4.389633300525313e-39
-0.178268 -1.069610 -3.169442 4.389633300525313e-39
-0.177566 -1.055533 -3.156959 4.389633300525313e-39
-0.177008 -1.042380 -3.147031 4.389633300525313e-39
-0.178757 -1.042749 -3.178128 4.389633300525313e-39
-0.178240 -1.029834 -3.168945 4.389633300525313e-39
-0.180068 -1.030390 -3.201440 4.389633300525313e-39
-0.181263 -1.027157 -3.222683 4.389633300525313e-39
-0.179830 -1.009047 -3.197209 1.873467803567068e-38
-0.180102 -1.000566 -3.202039 1.873467803567068e-38
-0.180936 -0.995148 -3.216870 1.873467803567068e-38
-0.180885 -0.984816 -3.215956 1.873467803567068e-38
-0.181024 -0.975519 -3.218437 1.873467803567068e-38
-0.180352 -0.961876 -3.206483 1.873467803567068e-38
-0.180112 -0.950592 -3.202223 1.873467803567068e-38
-0.180410 -0.942141 -3.207517 1.873467803567068e-38
-0.179772 -0.928820 -3.196167 1.873467803567068e-38
-0.182024 -0.930345 -3.236212 1.873467803567068e-38
-0.180364 -0.911842 -3.206705 1.873467803567068e-38
-0.180214 -0.901070 -3.204034 1.873467803567068e-38
-0.180023 -0.890112 -3.200631 1.873467803567068e-38
-0.179926 -0.879636 -3.198905 1.873467803567068e-38
-0.179684 -0.868471 -3.194604 1.873467803567068e-38
-0.181040 -0.864968 -3.218715 1.873467803567068e-38
-0.179744 -0.848793 -3.195684 1.873467803567068e-38
-0.180366 -0.841708 -3.206737 1.873467803567068e-38
-0.179438 -0.827409 -3.190239 1.873467803567068e-38
-0.179790 -0.819042 -3.196489 1.873467803567068e-38
-0.179632 -0.808344 -3.193684 1.873467803567068e-38
-0.179659 -0.798487 -3.194174 1.873467803567068e-38
-0.180096 -0.790422 -3.201937 1.873467803567068e-38
-0.179304 -0.776984 -3.187852 1.873467803567068e-38
-0.180016 -0.770068 -3.200511 1.873467803567068e-38
-0.179938 -0.759738 -3.199125 1.873467803567068e-38
-0.180186 -0.750774 -3.203529 1.873467803567068e-38
-0.178594 -0.734218 -3.175223 1.873467803567068e-38
-0.178833 -0.725267 -3.179478 1.873467803567068e-38
-0.178313 -0.713254 -3.170243 1.873467803567068e-38
-0.178529 -0.704199 -3.174081 1.873467803567068e-38
-0.179411 -0.697708 -3.189750 1.873467803567068e-38
-0.179687 -0.688802 -3.194672 1.873467803567068e-38
-0.179012 -0.676267 -3.182658 1.873467803567068e-38
-0.177519 -0.660763 -3.156110 1.873467803567068e-38
-0.177926 -0.652397 -3.163361 1.873467803567068e-38
-0.179018 -0.646455 -3.182775 1.873467803567068e-38
-0.177884 -0.632477 -3.162612 1.873467803567068e-38
-0.177077 -0.619769 -3.148256 1.873467803567068e-38
-0.178220 -0.613868 -3.168575 1.873467803567068e-38
-0.176736 -0.598940 -3.142202 1.873467803567068e-38
-0.176798 -0.589327 -3.143300 1.873467803567068e-38
-0.176553 -0.578702 -3.138949 1.873467803567068e-38
-0.176653 -0.569216 -3.140729 1.873467803567068e-38
-0.176738 -0.559669 -3.142228 1.873467803567068e-38
-0.176274 -0.548408 -3.133985 1.873467803567068e-38
-0.177479 -0.542297 -3.155410 1.873467803567068e-38
-0.176585 -0.529755 -3.139512 1.873467803567068e-38
-0.175093 -0.515551 -3.112983 1.873467803567068e-38
-0.175717 -0.507627 -3.124083 1.873467803567068e-38
-0.174760 -0.495152 -3.107057 1.873467803567068e-38
-0.176071 -0.489086 -3.130374 1.873467803567068e-38
-0.175903 -0.478848 -3.127395 1.873467803567068e-38
-0.176180 -0.469814 -3.132320 1.873467803567068e-38
-0.175936 -0.459389 -3.127980 1.873467803567068e-38
-0.175285 -0.447950 -3.116396 1.873467803567068e-38
-0.175538 -0.438844 -3.120891 1.873467803567068e-38
-0.174717 -0.427086 -3.106304 1.873467803567068e-38
-0.174219 -0.416189 -3.097440 1.873467803567068e-38
-0.175234 -0.408880 -3.115496 1.873467803567068e-38
-0.174958 -0.398514 -3.110578 1.873467803567068e-38
-0.173753 -0.386119 -3.089171 1.873467803567068e-38
-0.174141 -0.377307 -3.096070 1.873467803567068e-38
-0.175041 -0.369531 -3.112065 1.873467803567068e-38
-0.173872 -0.357404 -3.091278 1.873467803567068e-38
-0.173804 -0.347607 -3.090063 1.873467803567068e-38
-0.174870 -0.340026 -3.109027 1.873467803567068e-38
-0.174024 -0.328713 -3.093988 1.873467803567068e-38
-0.174512 -0.319938 -3.102651 1.873467803567068e-38
-0.174551 -0.310313 -3.103354 1.873467803567068e-38
-0.174260 -0.300115 -3.098182 1.873467803567068e-38
-0.174888 -0.291480 -3.109347 1.873467803567068e-38
-0.174354 -0.280904 -3.099855 1.873467803567068e-38
-0.173568 -0.269995 -3.085879 1.873467803567068e-38
-0.174389 -0.261584 -3.100474 1.873467803567068e-38
-0.173852 -0.251120 -3.090930 1.873467803567068e-38
-0.173787 -0.241371 -3.089767 1.873467803567068e-38
-0.174546 -0.232728 -3.103259 1.873467803567068e-38
-0.173798 -0.222076 -3.089967 1.873467803567068e-38
-0.173942 -0.212595 -3.092518 1.873467803567068e-38
-0.173620 -0.202557 -3.086803 1.873467803567068e-38
-0.175348 -0.194831 -3.117523 1.873467803567068e-38
-0.175092 -0.184820 -3.112974 1.874089839955382e-38
-0.175631 -0.175631 -3.122547 1.874089839955382e-38
-0.175140 -0.165410 -3.113829 1.874089839955382e-38
-0.174501 -0.155112 -3.102463 1.874089839955382e-38
-0.176419 -0.147016 -3.136562 1.874089839955382e-38
-0.175742 -0.136688 -3.124531 1.874089839955382e-38
-0.176500 -0.127472 -3.138008 1.874089839955382e-38
-0.175414 -0.116943 -3.118696 1.874089839955382e-38
-0.176339 -0.107762 -3.135131 1.874089839955382e-38
-0.177518 -0.098621 -3.156106 1.874089839955382e-38
-0.177101 -0.088551 -3.148692 1.874089839955382e-38
-0.274907 -0.122181 -4.887590 1.880790849211783e-38
-0.273655 -0.106421 -4.865319 1.880790849211783e-38
-0.273906 -0.091302 -4.869796 1.880790849211783e-38
-0.273936 -0.076093 -4.870318 1.880790849211783e-38
-0.274474 -0.060994 -4.879894 1.880790849211783e-38
-0.274128 -0.045688 -4.873737 1.880790849211783e-38
-0.273944 -0.030438 -4.870462 1.880790849211783e-38
-0.273750 -0.015208 -4.867009 1.880790849211783e-38
-0.274243 0.000000 -4.875772 1.880790849211783e-38
-0.274602 0.015256 -4.882168 1.880790849211783e-38
-0.275029 0.030559 -4.889745 1.880790849211783e-38
-0.273635 0.045606 -4.864970 1.880790849211783e-38
-0.274408 0.060980 -4.878709 1.880790849211783e-38
-0.274561 0.076267 -4.881438 1.880790849211783e-38
-0.275128 0.091709 -4.891509 1.880790849211783e-38
-0.274994 0.106942 -4.889134 1.880790849211783e-38
-0.274280 0.121902 -4.876436 1.880790849211783e-38
-0.275100 0.137550 -4.891019 1.880790849211783e-38
-0.275020 0.152789 -4.889590 1.880790849211783e-38
-0.273795 0.167319 -4.867816 1.880790849211783e-38
-0.274254 0.182836 -4.875973 1.880790849211783e-38
-0.274444 0.198210 -4.879353 1.880790849211783e-38
-0.274022 0.213128 -4.871854 1.880790849211783e-38
-0.274167 0.228472 -4.874427 1.880790849211783e-38
-0.274684 0.244164 -4.883626 1.880790849211783e-38
-0.274280 0.259042 -4.876430 1.880790849211783e-38
-0.274643 0.274643 -4.882898 1.880790849211783e-38
-0.274295 0.289533 -4.876698 1.880790849211783e-38
-0.274543 0.305048 -4.881110 1.880790849211783e-38
-0.274048 0.319723 -4.872311 1.880790849211783e-38
-0.275499 0.336722 -4.898118 1.880790849211783e-38
-0.272960 0.348782 -4.852966 1.880790849211783e-38
-0.180815 0.241087 -3.214717 7.318701619475655e-41
-0.180218 0.250303 -3.204101 7.318701619475655e-41
-0.180210 0.260303 -3.203953 7.318701619475655e-41
-0.180026 0.270038 -3.200684 7.318701619475655e-41
-0.179778 0.279655 -3.196288 7.318701619475655e-41
-0.178733 0.287959 -3.177702 7.318701619475655e-41
-0.179337 0.298894 -3.188434 7.318701619475655e-41
-0.178168 0.306844 -3.167649 7.318701619475655e-41
-0.178968 0.318165 -3.181874 7.318701619475655e-41
-0.177174 0.324819 -3.149982 7.318701619475655e-41
-0.177570 0.335411 -3.157033 7.318701619475655e-41
-0.177070 0.344303 -3.148135 7.318701619475655e-41
-0.177020 0.354039 -3.147241 1.874089839955382e-38
-0.176317 0.362429 -3.134743 1.874089839955382e-38
-0.176015 0.371588 -3.129383 1.874089839955382e-38
-0.175444 0.380130 -3.119235 1.874089839955382e-38
-0.176169 0.391487 -3.132118 1.874089839955382e-38
-0.176203 0.401352 -3.132729 1.874089839955382e-38
-0.174815 0.407901 -3.108040 1.874089839955382e-38
-0.174597 0.417093 -3.104169 1.874089839955382e-38
-0.174645 0.426909 -3.105015 1.874089839955382e-38
-0.175005 0.437511 -3.111414 1.874089839955382e-38
-0.176082 0.449988 -3.130574 1.874089839955382e-38
-0.176062 0.459717 -3.130211 1.874089839955382e-38
-0.176122 0.469658 -3.131277 1.874089839955382e-38
-0.274992 0.748590 -4.889100 1.880790849211783e-38
-0.274727 0.763130 -4.884381 1.880790849211783e-38
-0.274733 0.778409 -4.884482 1.880790849211783e-38
-0.275142 0.794856 -4.891771 1.880790849211783e-38
-0.274531 0.808342 -4.880906 1.880790849211783e-38
-0.274354 0.823063 -4.877761 1.880790849211783e-38
-0.273795 0.836597 -4.867819 1.880790849211783e-38
-0.273266 0.850161 -4.858408 1.880790849211783e-38
-0.275027 0.870919 -4.889719 1.880790849211783e-38
-0.273557 0.881462 -4.863586 1.880790849211783e-38
-0.274100 0.898440 -4.873241 1.880790849211783e-38
-0.274215 0.914049 -4.875277 1.880790849211783e-38
-0.274809 0.931298 -4.885845 1.880790849211783e-38
-0.274128 0.944218 -4.873732 1.880790849211783e-38
-0.275165 0.963076 -4.892163 1.880790849211783e-38
-0.274341 0.975435 -4.877522 1.880790849211783e-38
-0.273511 0.987680 -4.862772 1.880790849211783e-38
-0.274161 1.005257 -4.874322 1.880790849211783e-38
-0.273829 1.019251 -4.868414 1.880790849211783e-38
-0.274002 1.035117 -4.871487 1.880790849211783e-38
-0.275694 1.056828 -4.901582 1.880790849211783e-38
-0.274769 1.068547 -4.885134 1.880790849211783e-38
-0.274170 1.081449 -4.874486 1.880790849211783e-38
-0.274260 1.097041 -4.876085 1.880790849211783e-38
-0.274503 1.113263 -4.880408 1.880790849211783e-38
-0.274179 1.127181 -4.874644 1.880790849211783e-38
-0.273807 1.140864 -4.868033 1.880790849211783e-38
-0.274677 1.159746 -4.883491 1.880790849211783e-38
-0.274071 1.172413 -4.872712 1.880790849211783e-38
-0.274820 1.190886 -4.886037 1.880790849211783e-38
-0.274266 1.203721 -4.876181 1.880790849211783e-38
-0.274950 1.222000 -4.888351 1.880790849211783e-38
-0.274521 1.235342 -4.880713 1.880790849211783e-38
-0.273681 1.246771 -4.865793 1.880790849211783e-38
-0.274776 1.267021 -4.885251 1.880790849211783e-38
-0.274967 1.283178 -4.888645 1.880790849211783e-38
-0.273590 1.291954 -4.864176 1.880790849211783e-38
-0.274360 1.310829 -4.877853 1.880790849211783e-38
-0.273540 1.322112 -4.863286 1.880790849211783e-38
-0.274539 1.342192 -4.881047 1.880790849211783e-38
-0.273572 1.352664 -4.863857 1.880790849211783e-38
-0.274468 1.372338 -4.879773 1.880790849211783e-38
-0.273888 1.384658 -4.869476 1.880790849211783e-38
-0.273423 1.397494 -4.861195 1.880790849211783e-38
-0.274263 1.417023 -4.876127 1.880790849211783e-38
-0.273472 1.428133 -4.862077 1.880790849211783e-38
-0.273905 1.445610 -4.869771 1.880790849211783e-38
-0.274098 1.461855 -4.873199 1.880790849211783e-38
-0.274826 1.481007 -4.886145 1.880790849211783e-38
-0.274057 1.492086 -4.872466 1.880790849211783e-38
-0.273452 1.503986 -4.861716 1.880790849211783e-38
-0.274598 1.525546 -4.882094 1.880790849211783e-38
-0.273970 1.537273 -4.870916 1.880790849211783e-38
-0.275041 1.558566 -4.889969 1.880790849211783e-38
-0.273501 1.565033 -4.862585 1.880790849211783e-38
-0.274324 1.584981 -4.877212 1.880790849211783e-38
-0.273914 1.597829 -4.869921 1.880790849211783e-38
-0.274470 1.616323 -4.879813 1.880790849211783e-38
-0.273823 1.627728 -4.868319 1.880790849211783e-38
-0.274593 1.647557 -4.881999 1.880790849211783e-38
-0.274551 1.662561 -4.881261 1.880790849211783e-38
-0.274616 1.678208 -4.882407 1.880790849211783e-38
-0.273851 1.688746 -4.868803 1.880790849211783e-38
-0.274528 1.708172 -4.880839 1.880790849211783e-38
-0.273886 1.719396 -4.869433 1.880790849211783e-38
-0.273788 1.733992 -4.867693 1.880790849211783e-38
-0.274920 1.756436 -4.887823 1.880790849211783e-38
-0.274273 1.767538 -4.876315 1.880790849211783e-38
-0.274677 1.785403 -4.883501 1.880790849211783e-38
-0.275051 1.803110 -4.890140 1.880790849211783e-38
-0.274271 1.813236 -4.876276 1.880790849211783e-38
-0.273678 1.824520 -4.865734 1.880790849211783e-38
-0.274946 1.848248 -4.888277 1.880790849211783e-38
-0.273652 1.854755 -4.865278 1.880790849211783e-38
-0.273340 1.867825 -4.859728 1.880790849211783e-38
-0.274351 1.889977 -4.877707 1.880790849211783e-38
-0.275220 1.911247 -4.893141 1.880790849211783e-38
-0.274517 1.921622 -4.880659 1.880790849211783e-38
-0.273504 1.929722 -4.862638 1.880790849211783e-38
-0.151504 -1.140738 -2.852048 4.333194603576166e-39
-0.153814 -1.149083 -2.895534 4.333194603576166e-39
-0.154452 -1.144762 -2.907540 4.333194603576166e-39
-0.155312 -1.142001 -2.923731 4.333194603576166e-39
-0.156718 -1.143118 -2.950192 4.333194603576166e-39
-0.158192 -1.144562 -2.977936 4.333194603576166e-39
-0.159268 -1.142979 -2.998192 4.333194603576166e-39
-0.160677 -1.143641 -3.024721 4.333194603576166e-39
-0.161546 -1.140321 -3.041073 4.333194603576166e-39
-0.163450 -1.144151 -3.076927 4.333194603576166e-39
-0.164669 -1.142999 -3.099880 4.333194603576166e-39
-0.163660 -1.126369 -3.080887 4.389633300525313e-39
-0.163935 -1.118613 -3.086049 4.389633300525313e-39
-0.164274 -1.111269 -3.092447 4.389633300525313e-39
-0.163512 -1.096490 -3.078085 4.389633300525313e-39
-0.165621 -1.100893 -3.117797 4.389633300525313e-39
-0.166288 -1.095543 -3.130346 4.389633300525313e-39
-0.165798 -1.082565 -3.121131 4.389633300525313e-39
-0.166314 -1.076152 -3.130848 4.389633300525313e-39
-0.167076 -1.071251 -3.145182 4.389633300525313e-39
-0.167873 -1.066487 -3.160186 4.389633300525313e-39
-0.168612 -1.061263 -3.174098 4.389633300525313e-39
-0.168954 -1.053476 -3.180532 4.389633300525313e-39
-0.169377 -1.046149 -3.188491 4.389633300525313e-39
-0.169585 -1.037458 -3.192408 4.389633300525313e-39
-0.170211 -1.031276 -3.204192 4.389633300525313e-39
-0.170325 -1.021949 -3.206342 4.389633300525313e-39
-0.170015 -1.010091 -3.200517 1.873467803567068e-38
-0.170691 -1.004062 -3.213228 1.873467803567068e-38
-0.171036 -0.996032 -3.219726 1.873467803567068e-38
-0.170772 -0.984451 -3.214764 1.873467803567068e-38
-0.170656 -0.973744 -3.212580 1.873467803567068e-38
-0.170717 -0.964051 -3.213731 1.873467803567068e-38
-0.170120 -0.950670 -3.202485 1.873467803567068e-38
-0.169803 -0.938910 -3.196517 1.873467803567068e-38
-0.171343 -0.937347 -3.225509 1.873467803567068e-38
-0.169876 -0.919330 -3.197896 1.873467803567068e-38
-0.170135 -0.910724 -3.202775 1.873467803567068e-38
-0.170773 -0.904093 -3.214783 1.873467803567068e-38
-0.169283 -0.886247 -3.186734 1.873467803567068e-38
-0.171108 -0.885733 -3.221078 1.873467803567068e-38
-0.170094 -0.870482 -3.202002 1.873467803567068e-38
-0.169183 -0.855867 -3.184848 1.873467803567068e-38
-0.171162 -0.855808 -3.222096 1.873467803567068e-38
-0.170019 -0.840095 -3.200590 1.873467803567068e-38
-0.170616 -0.833007 -3.211823 1.873467803567068e-38
-0.169575 -0.817950 -3.192229 1.873467803567068e-38
-0.170466 -0.812221 -3.209003 1.873467803567068e-38
-0.169979 -0.799900 -3.199828 1.873467803567068e-38
-0.169435 -0.787373 -3.189587 1.873467803567068e-38
-0.168742 -0.774226 -3.176539 1.873467803567068e-38
-0.170173 -0.770782 -3.203477 1.873467803567068e-38
-0.168937 -0.755247 -3.180212 1.873467803567068e-38
-0.170182 -0.750804 -3.203661 1.873467803567068e-38
-0.168687 -0.734283 -3.175505 1.873467803567068e-38
-0.169774 -0.729029 -3.195971 1.873467803567068e-38
-0.169134 -0.716332 -3.183924 1.873467803567068e-38
-0.169363 -0.707341 -3.188242 1.873467803567068e-38
-0.167840 -0.691108 -3.159575 1.873467803567068e-38
-0.168307 -0.683129 -3.168361 1.873467803567068e-38
-0.168012 -0.672047 -3.162801 1.873467803567068e-38
-0.169048 -0.666248 -3.182308 1.873467803567068e-38
-0.168055 -0.652448 -3.163608 1.873467803567068e-38
-0.166938 -0.638291 -3.142578 1.873467803567068e-38
-0.167972 -0.632365 -3.162048 1.873467803567068e-38
-0.167819 -0.621916 -3.159163 1.873467803567068e-38
-0.167243 -0.609946 -3.148332 1.873467803567068e-38
-0.167123 -0.599677 -3.146073 1.873467803567068e-38
-0.167384 -0.590768 -3.150988 1.873467803567068e-38
-0.166706 -0.578569 -3.138224 1.873467803567068e-38
-0.166180 -0.566968 -3.128322 1.873467803567068e-38
-0.166386 -0.557881 -3.132188 1.873467803567068e-38
-0.165606 -0.545527 -3.117520 1.873467803567068e-38
-0.166934 -0.540082 -3.142520 1.873467803567068e-38
-0.166744 -0.529657 -3.138930 1.873467803567068e-38
-0.166454 -0.518946 -3.133483 1.873467803567068e-38
-0.166807 -0.510232 -3.140113 1.873467803567068e-38
-0.166172 -0.498517 -3.128173 1.873467803567068e-38
-0.165558 -0.486935 -3.116606 1.873467803567068e-38
-0.165227 -0.476242 -3.110376 1.873467803567068e-38
-0.166211 -0.469302 -3.128901 1.873467803567068e-38
-0.164887 -0.455864 -3.103975 1.873467803567068e-38
-0.165144 -0.446861 -3.108818 1.873467803567068e-38
-0.164637 -0.435804 -3.099273 1.873467803567068e-38
-0.165142 -0.427428 -3.108786 1.873467803567068e-38
-0.165974 -0.419816 -3.124434 1.873467803567068e-38
-0.164690 -0.406881 -3.100267 1.873467803567068e-38
-0.164826 -0.397521 -3.102826 1.873467803567068e-38
-0.164583 -0.387253 -3.098245 1.873467803567068e-38
-0.164828 -0.378134 -3.102858 1.873467803567068e-38
-0.164205 -0.367047 -3.091142 1.873467803567068e-38
-0.164573 -0.358189 -3.098071 1.873467803567068e-38
-0.163472 -0.346175 -3.077333 1.873467803567068e-38
-0.163969 -0.337584 -3.086699 1.873467803567068e-38
-0.164849 -0.329697 -3.103253 1.873467803567068e-38
-0.165056 -0.320403 -3.107162 1.873467803567068e-38
-0.164331 -0.309328 -3.093502 1.873467803567068e-38
-0.163846 -0.298777 -3.084371 1.873467803567068e-38
-0.162043 -0.285959 -3.050443 1.873467803567068e-38
-0.163003 -0.278064 -3.068513 1.873467803567068e-38
-0.163031 -0.268522 -3.069047 1.873467803567068e-38
-0.163555 -0.259764 -3.078908 1.873467803567068e-38
-0.164295 -0.251275 -3.092841 1.873467803567068e-38
-0.164312 -0.241635 -3.093148 1.873467803567068e-38
-0.163792 -0.231236 -3.083362 1.873467803567068e-38
-0.164161 -0.222100 -3.090308 1.873467803567068e-38
-0.164692 -0.213130 -3.100299 1.873467803567068e-38
-0.163497 -0.201967 -3.077817 1.873467803567068e-38
-0.164496 -0.193525 -3.096621 1.873467803567068e-38
-0.163449 -0.182678 -3.076901 1.874089839955382e-38
-0.164476 -0.174151 -3.096238 1.874089839955382e-38
-0.165708 -0.165708 -3.119433 1.874089839955382e-38
-0.164044 -0.154394 -3.088105 1.874089839955382e-38
-0.165198 -0.145763 -3.109827 1.874089839955382e-38
-0.165485 -0.136282 -3.115229 1.874089839955382e-38
-0.165353 -0.126446 -3.112744 1.874089839955382e-38
-0.165946 -0.117138 -3.123915 1.874089839955382e-38
-0.165065 -0.106807 -3.107320 1.874089839955382e-38
-0.165595 -0.097409 -3.117304 1.874089839955382e-38
-0.166101 -0.087936 -3.126821 1.874089839955382e-38
-0.165855 -0.078049 -3.122196 1.874089839955382e-38
-0.166822 -0.068692 -3.140409 1.874089839955382e-38
-0.166280 -0.058687 -3.130195 1.874089839955382e-38
-0.166815 -0.049063 -3.140276 1.874089839955382e-38
-0.168154 -0.039566 -3.165486 1.874089839955382e-38
-0.168406 -0.029719 -3.170215 1.874089839955382e-38
-0.168143 -0.019782 -3.165277 1.874089839955382e-38
-0.258849 -0.015226 -4.872808 1.880790849211783e-38
-0.258713 0.000000 -4.870234 1.880790849211783e-38
-0.258405 0.015200 -4.864434 1.880790849211783e-38
-0.258861 0.030454 -4.873027 1.880790849211783e-38
-0.259768 0.045841 -4.890095 1.880790849211783e-38
-0.260129 0.061207 -4.896898 1.880790849211783e-38
-0.259402 0.076295 -4.883211 1.880790849211783e-38
-0.259248 0.091499 -4.880304 1.880790849211783e-38
-0.257966 0.106221 -4.856169 1.880790849211783e-38
-0.259258 0.122004 -4.880494 1.880790849211783e-38
-0.258934 0.137083 -4.874406 1.880790849211783e-38
-0.259249 0.152499 -4.880328 1.880790849211783e-38
-0.260060 0.168274 -4.895604 1.880790849211783e-38
-0.258990 0.182817 -4.875457 1.880790849211783e-38
-0.258682 0.197816 -4.869653 1.880790849211783e-38
-0.258712 0.213057 -4.870226 1.880790849211783e-38
-0.259987 0.229401 -4.894231 1.880790849211783e-38
-0.259044 0.243806 -4.876470 1.880790849211783e-38
-0.258466 0.258466 -4.865589 1.880790849211783e-38
-0.259561 0.274829 -4.886196 1.880790849211783e-38
-0.258559 0.288978 -4.867343 1.880790849211783e-38
-0.258490 0.304106 -4.866041 1.880790849211783e-38
-0.259306 0.320320 -4.881411 1.880790849211783e-38
-0.258989 0.335162 -4.875432 1.880790849211783e-38
-0.259413 0.350970 -4.883414 1.880790849211783e-38
-0.259064 0.365738 -4.876849 1.880790849211783e-38
-0.259182 0.381151 -4.879076 1.880790849211783e-38
-0.171145 0.261751 -3.221784 7.318701619475655e-41
-0.170628 0.270997 -3.212044 7.318701619475655e-41
-0.170014 0.280023 -3.200490 7.318701619475655e-41
-0.169741 0.289558 -3.195346 7.318701619475655e-41
-0.169811 0.299667 -3.196674 7.318701619475655e-41
-0.169010 0.308195 -3.181591 7.318701619475655e-41
-0.169082 0.318272 -3.182945 7.318701619475655e-41
-0.168172 0.326451 -3.165808 7.318701619475655e-41
-0.169026 0.338052 -3.181891 1.874089839955382e-38
-0.167520 0.344895 -3.153547 1.874089839955382e-38
-0.166512 0.352613 -3.134562 1.874089839955382e-38
-0.166321 0.361993 -3.130971 1.874089839955382e-38
-0.165119 0.369088 -3.108335 1.874089839955382e-38
-0.164728 0.377906 -3.100986 1.874089839955382e-38
-0.164640 0.387388 -3.099322 1.874089839955382e-38
-0.165532 0.399223 -3.116112 1.874089839955382e-38
-0.166038 0.410211 -3.125641 1.874089839955382e-38
-0.166039 0.419981 -3.125660 1.874089839955382e-38
-0.166158 0.430057 -3.127913 1.874089839955382e-38
-0.165818 0.438931 -3.121511 1.874089839955382e-38
-0.166502 0.450536 -3.134386 1.874089839955382e-38
-0.166035 0.459039 -3.125592 1.874089839955382e-38
-0.166793 0.470946 -3.139865 1.874089839955382e-38
-0.169479 0.488498 -3.190418 1.874089839955382e-38
-0.259051 0.761916 -4.876609 1.880790849211783e-38
-0.259258 0.777773 -4.880493 1.880790849211783e-38
-0.259145 0.792679 -4.878376 1.880790849211783e-38
-0.259119 0.807842 -4.877882 1.880790849211783e-38
-0.258694 0.821734 -4.869884 1.880790849211783e-38
-0.258897 0.837609 -4.873709 1.880790849211783e-38
-0.258466 0.851416 -4.865583 1.880790849211783e-38
-0.259695 0.870741 -4.888720 1.880790849211783e-38
-0.259297 0.884662 -4.881242 1.880790849211783e-38
-0.259325 0.900010 -4.881760 1.880790849211783e-38
-0.259995 0.917631 -4.894380 1.880790849211783e-38
-0.258819 0.928705 -4.872241 1.880790849211783e-38
-0.259509 0.946445 -4.885227 1.880790849211783e-38
-0.258640 0.958491 -4.868871 1.880790849211783e-38
-0.257632 0.969907 -4.849883 1.880790849211783e-38
-0.259632 0.992710 -4.887535 1.880790849211783e-38
-0.259099 1.005913 -4.877504 1.880790849211783e-38
-0.259367 1.022210 -4.882543 1.880790849211783e-38
-0.259220 1.036881 -4.879789 1.880790849211783e-38
-0.259097 1.051628 -4.877464 1.880790849211783e-38
-0.258987 1.066418 -4.875401 1.880790849211783e-38
-0.260493 1.087941 -4.903747 1.880790849211783e-38
-0.259114 1.097426 -4.877795 1.880790849211783e-38
-0.259196 1.113018 -4.879332 1.880790849211783e-38
-0.259053 1.127642 -4.876637 1.880790849211783e-38
-0.259714 1.145798 -4.889089 1.880790849211783e-38
-0.258489 1.155597 -4.866017 1.880790849211783e-38
-0.259224 1.174130 -4.879851 1.880790849211783e-38
-0.258997 1.188338 -4.875580 1.880790849211783e-38
-0.258490 1.201218 -4.866042 1.880790849211783e-38
-0.259704 1.222139 -4.888903 1.880790849211783e-38
-0.259155 1.234797 -4.878560 1.880790849211783e-38
-0.258669 1.247699 -4.869419 1.880790849211783e-38
-0.260080 1.269803 -4.895977 1.880790849211783e-38
-0.258331 1.276460 -4.863053 1.880790849211783e-38
-0.259626 1.298129 -4.887423 1.880790849211783e-38
-0.259759 1.314075 -4.889930 1.880790849211783e-38
-0.259023 1.325586 -4.876067 1.880790849211783e-38
-0.258686 1.339079 -4.869724 1.880790849211783e-38
-0.259836 1.360318 -4.891379 1.880790849211783e-38
-0.258994 1.371144 -4.875526 1.880790849211783e-38
-0.258111 1.381654 -4.858909 1.880790849211783e-38
-0.259227 1.402874 -4.879910 1.880790849211783e-38
-0.258496 1.414124 -4.866152 1.880790849211783e-38
-0.259796 1.436521 -4.890634 1.880790849211783e-38
-0.258768 1.446057 -4.871277 1.880790849211783e-38
-0.259605 1.466005 -4.887033 1.880790849211783e-38
-0.258115 1.472774 -4.858980 1.880790849211783e-38
-0.259281 1.494677 -4.880925 1.880790849211783e-38
-0.260010 1.514175 -4.894652 1.880790849211783e-38
-0.258877 1.522807 -4.873330 1.880790849211783e-38
-0.259212 1.540027 -4.879640 1.880790849211783e-38
-0.259720 1.558318 -4.889190 1.880790849211783e-38
-0.258929 1.568804 -4.874302 1.880790849211783e-38
-0.258733 1.582838 -4.870618 1.880790849211783e-38
-0.260132 1.606697 -4.896951 1.880790849211783e-38
-0.258742 1.613333 -4.870787 1.880790849211783e-38
