# .PCD v.7 - Exported by BlenSor
VERSION .7
FIELDS x y z rgb
SIZE 4 4 4 4
TYPE F F F F
COUNT 1 1 1 1
WIDTH 947
HEIGHT 1
VIEWPOINT 0 0 0 1 0 0 0
POINTS 947
DATA ascii
1.331449 0.244864 -4.897634 1.880790849211783e-38
1.325068 0.258921 -4.874161 1.880790849211783e-38
1.324315 0.273996 -4.871392 1.880790849211783e-38
1.327014 0.289808 -4.881320 1.880790849211783e-38
1.325176 0.304638 -4.874557 1.880790849211783e-38
1.327926 0.320534 -4.884675 1.880790849211783e-38
1.322128 0.334331 -4.863345 1.880790849211783e-38
1.327458 0.350937 -4.882953 1.880790849211783e-38
1.329503 0.366760 -4.890477 1.880790849211783e-38
1.328785 0.381835 -4.887834 1.880790849211783e-38
1.327740 0.396796 -4.883989 1.880790849211783e-38
1.328167 0.412190 -4.885561 1.880790849211783e-38
1.330039 0.428058 -4.892445 1.880790849211783e-38
1.321695 0.440565 -4.861753 1.880790849211783e-38
1.322534 0.456046 -4.864839 1.880790849211783e-38
1.323013 0.471419 -4.866603 1.880790849211783e-38
1.322978 0.486613 -4.866473 1.880790849211783e-38
1.328631 0.503963 -4.887267 1.880790849211783e-38
1.325766 0.518115 -4.876728 1.880790849211783e-38
1.327522 0.534060 -4.883187 1.880790849211783e-38
1.325393 0.548438 -4.875356 1.880790849211783e-38
1.321254 0.561913 -4.860133 1.880790849211783e-38
1.327795 0.579957 -4.884193 1.880790849211783e-38
1.324417 0.593704 -4.871766 1.880790849211783e-38
1.327769 0.610469 -4.884097 1.880790849211783e-38
1.324829 0.624345 -4.873281 1.880790849211783e-38
1.329530 0.641842 -4.890574 1.880790849211783e-38
1.328213 0.656473 -4.885730 1.880790849211783e-38
1.328174 0.671720 -4.885587 1.880790849211783e-38
1.327078 0.686420 -4.881557 1.880790849211783e-38
1.324671 0.700401 -4.872701 1.880790849211783e-38
1.323864 0.715191 -4.869734 1.880790849211783e-38
1.325134 0.731108 -4.874403 1.880790849211783e-38
1.324144 0.745782 -4.870763 1.880790849211783e-38
1.328769 0.763660 -4.887775 1.880790849211783e-38
1.326907 0.777842 -4.880925 1.880790849211783e-38
1.332344 0.796343 -4.900924 1.880790849211783e-38
1.325811 0.807678 -4.876893 1.880790849211783e-38
1.329652 0.825301 -4.891022 1.880790849211783e-38
1.328811 0.840053 -4.887930 1.880790849211783e-38
1.324859 0.852783 -4.873394 1.880790849211783e-38
1.323230 0.866944 -4.867399 1.880790849211783e-38
1.324573 0.883049 -4.872341 1.880790849211783e-38
1.326761 0.899758 -4.880390 1.880790849211783e-38
1.322389 0.911993 -4.864307 1.880790849211783e-38
1.325044 0.929054 -4.874074 1.880790849211783e-38
1.322733 0.942637 -4.865572 1.880790849211783e-38
1.323633 0.958493 -4.868884 1.880790849211783e-38
1.325918 0.975388 -4.877290 1.880790849211783e-38
1.329376 0.993212 -4.890007 1.880790849211783e-38
1.328114 1.007535 -4.885366 1.880790849211783e-38
1.323259 1.019062 -4.867507 1.880790849211783e-38
1.322536 1.033706 -4.864847 1.880790849211783e-38
1.324023 1.050087 -4.870317 1.880790849211783e-38
1.329369 1.069607 -4.889981 1.880790849211783e-38
1.329635 1.085105 -4.890962 1.880790849211783e-38
1.325290 1.096792 -4.874980 1.880790849211783e-38
1.323496 1.110519 -4.868378 1.880790849211783e-38
1.324597 1.126669 -4.872429 1.880790849211783e-38
1.325850 1.142974 -4.877037 1.880790849211783e-38
1.326181 1.158503 -4.878255 1.880790849211783e-38
1.323838 1.171672 -4.869636 1.880790849211783e-38
1.324056 1.187085 -4.870438 1.880790849211783e-38
1.327074 1.205044 -4.881539 1.880790849211783e-38
1.323711 1.217206 -4.869171 1.880790849211783e-38
1.326740 1.235241 -4.880313 1.880790849211783e-38
1.324911 1.248766 -4.873582 1.880790849211783e-38
1.326700 1.265703 -4.880165 1.880790849211783e-38
1.330385 1.284509 -4.893719 1.880790849211783e-38
1.327778 1.297254 -4.884130 1.880790849211783e-38
1.326481 1.311234 -4.879359 1.880790849211783e-38
1.325743 1.325743 -4.876645 1.880790849211783e-38
1.324404 1.339627 -4.871718 1.880790849211783e-38
1.325971 1.356453 -4.877483 1.880790849211783e-38
1.324643 1.370321 -4.872599 1.880790849211783e-38
1.327008 1.388020 -4.881299 1.880790849211783e-38
1.322363 1.398361 -4.864211 1.880790849211783e-38
1.327148 1.418676 -4.881813 1.880790849211783e-38
1.330250 1.437281 -4.893221 1.880790849211783e-38
1.327722 1.449812 -4.883924 1.880790849211783e-38
1.325032 1.462105 -4.874030 1.880790849211783e-38
1.324834 1.477114 -4.873300 1.880790849211783e-38
1.325948 1.493596 -4.877397 1.880790849211783e-38
1.326272 1.509207 -4.878592 1.880790849211783e-38
1.323284 1.521016 -4.867599 1.880790849211783e-38
1.325102 1.538336 -4.874285 1.880790849211783e-38
1.325945 1.554556 -4.877386 1.880790849211783e-38
1.323838 1.567302 -4.869637 1.880790849211783e-38
1.327718 1.587158 -4.883910 1.880790849211783e-38
1.326572 1.601036 -4.879695 1.880790849211783e-38
1.326309 1.615963 -4.878726 1.880790849211783e-38
1.321348 1.625106 -4.860477 1.880790849211783e-38
1.325461 1.645400 -4.875607 1.880790849211783e-38
1.324894 1.659925 -4.873521 1.880790849211783e-38
1.325633 1.676088 -4.876240 1.880790849211783e-38
1.328193 1.694591 -4.885656 1.880790849211783e-38
1.330215 1.712460 -4.893092 1.880790849211783e-38
1.322840 1.718172 -4.865967 1.880790849211783e-38
1.327437 1.739400 -4.882874 1.880790849211783e-38
1.325344 1.751891 -4.875175 1.880790849211783e-38
1.320618 1.760824 -4.857793 1.880790849211783e-38
1.327978 1.785901 -4.884864 1.880790849211783e-38
1.327114 1.799994 -4.881687 1.880790849211783e-38
1.327788 1.816170 -4.884166 1.880790849211783e-38
1.329298 1.833514 -4.889720 1.880790849211783e-38
1.324253 1.841778 -4.871165 1.880790849211783e-38
1.326910 1.860724 -4.880936 1.880790849211783e-38
1.325199 1.873557 -4.874643 1.880790849211783e-38
1.321628 1.883700 -4.861509 1.880790849211783e-38
1.325912 1.905045 -4.877264 1.880790849211783e-38
1.322883 1.915900 -4.866124 1.880790849211783e-38
1.328247 1.938936 -4.885855 1.880790849211783e-38
0.782782 -1.138592 -2.846684 4.333194603576166e-39
0.791184 -1.141822 -2.877237 4.333194603576166e-39
0.796502 -1.140446 -2.896577 4.333194603576166e-39
0.803147 -1.140834 -2.920743 4.333194603576166e-39
0.809167 -1.140190 -2.942636 4.333194603576166e-39
0.819683 -1.145693 -2.980878 4.333194603576166e-39
0.823047 -1.141043 -2.993113 4.333194603576166e-39
0.829510 -1.140577 -3.016616 4.333194603576166e-39
0.834675 -1.138194 -3.035400 4.333194603576166e-39
0.845671 -1.143577 -3.075385 4.333194603576166e-39
0.855374 -1.146978 -3.110672 4.333194603576166e-39
0.854857 -1.136571 -3.108792 4.333194603576166e-39
0.866873 -1.142696 -3.152491 4.333194603576166e-39
0.874767 -1.143162 -3.181199 4.333194603576166e-39
0.881235 -1.141600 -3.204720 4.333194603576166e-39
0.886843 -1.138787 -3.225114 4.333194603576166e-39
0.895904 -1.140241 -3.258064 4.333194603576166e-39
0.902453 -1.138321 -3.281881 4.333194603576166e-39
0.911290 -1.139112 -3.314018 4.333194603576166e-39
0.922137 -1.142192 -3.353464 4.333194603576166e-39
0.926512 -1.137083 -3.369374 4.333194603576166e-39
0.939871 -1.142798 -3.417958 4.333194603576166e-39
0.944917 -1.138196 -3.436308 4.333194603576166e-39
0.957666 -1.142670 -3.482670 4.333194603576166e-39
0.968124 -1.144146 -3.520701 4.333194603576166e-39
0.974116 -1.140159 -3.542493 4.333194603576166e-39
0.989977 -1.147473 -3.600173 4.333194603576166e-39
0.993629 -1.140415 -3.613452 4.333194603576166e-39
1.002484 -1.139187 -3.645658 4.333194603576166e-39
1.014955 -1.141825 -3.691010 4.333194603576166e-39
1.026953 -1.143652 -3.734639 4.333194603576166e-39
1.037379 -1.143474 -3.772555 4.333194603576166e-39
1.049686 -1.145112 -3.817312 4.333194603576166e-39
1.054090 -1.137939 -3.833330 4.333194603576166e-39
1.071852 -1.144933 -3.897922 4.333194603576166e-39
1.079420 -1.140751 -3.925445 4.333194603576166e-39
1.093692 -1.143405 -3.977345 4.333194603576166e-39
1.101396 -1.138944 -4.005363 4.333194603576166e-39
1.112563 -1.137848 -4.045972 4.333194603576166e-39
1.132255 -1.145121 -4.117583 4.333194603576166e-39
1.145746 -1.145746 -4.166647 4.333194603576166e-39
1.158776 -1.145608 -4.214030 4.333194603576166e-39
1.167317 -1.140787 -4.245093 4.333194603576166e-39
1.183655 -1.143304 -4.304508 4.333194603576166e-39
1.194227 -1.139944 -4.342954 4.333194603576166e-39
1.213969 -1.144994 -4.414749 4.333194603576166e-39
1.225556 -1.141995 -4.456883 4.333194603576166e-39
1.237261 -1.138843 -4.499454 4.333194603576166e-39
1.256614 -1.142377 -4.569834 4.333194603576166e-39
1.274444 -1.144103 -4.634673 4.333194603576166e-39
1.288284 -1.141888 -4.685003 4.333194603576166e-39
1.303291 -1.140379 -4.739577 4.333194603576166e-39
1.318554 -1.138751 -4.795084 4.333194603576166e-39
1.346949 -1.147967 -4.898344 4.333194603576166e-39
1.343635 -1.129875 -4.886295 1.880790849211783e-38
1.345869 -1.116459 -4.894417 1.880790849211783e-38
1.341562 -1.097642 -4.878757 1.880790849211783e-38
1.338041 -1.079556 -4.865951 1.880790849211783e-38
1.342161 -1.067628 -4.880935 1.880790849211783e-38
1.336425 -1.047879 -4.860074 1.880790849211783e-38
1.341326 -1.036479 -4.877898 1.880790849211783e-38
1.339229 -1.019641 -4.870273 1.880790849211783e-38
1.342312 -1.006734 -4.881485 1.880790849211783e-38
1.341471 -0.990859 -4.878425 1.880790849211783e-38
1.341053 -0.975312 -4.876905 1.880790849211783e-38
1.343095 -0.961534 -4.884332 1.880790849211783e-38
1.340992 -0.944790 -4.876685 1.880790849211783e-38
1.336895 -0.926712 -4.861784 1.880790849211783e-38
1.340609 -0.914052 -4.875291 1.880790849211783e-38
1.343854 -0.900993 -4.887090 1.880790849211783e-38
1.340827 -0.883727 -4.876083 1.880790849211783e-38
1.341351 -0.868830 -4.877988 1.880790849211783e-38
1.338668 -0.851880 -4.868231 1.880790849211783e-38
1.345402 -0.840876 -4.892719 1.880790849211783e-38
1.341938 -0.823462 -4.880125 1.880790849211783e-38
1.338153 -0.805933 -4.866359 1.880790849211783e-38
1.343677 -0.793991 -4.886448 1.880790849211783e-38
1.340341 -0.776789 -4.874317 1.880790849211783e-38
1.338502 -0.760513 -4.867629 1.880790849211783e-38
1.346060 -0.749510 -4.895111 1.880790849211783e-38
1.344268 -0.733237 -4.888596 1.880790849211783e-38
1.341919 -0.716707 -4.880054 1.880790849211783e-38
1.339858 -0.700380 -4.872559 1.880790849211783e-38
1.338180 -0.684297 -4.866456 1.880790849211783e-38
1.340909 -0.670455 -4.876382 1.880790849211783e-38
1.339811 -0.654681 -4.872389 1.880790849211783e-38
1.342348 -0.640666 -4.881614 1.880790849211783e-38
1.346907 -0.627536 -4.898194 1.880790849211783e-38
1.339341 -0.608791 -4.870679 1.880790849211783e-38
1.339541 -0.593660 -4.871407 1.880790849211783e-38
1.338877 -0.578152 -4.868992 1.880790849211783e-38
1.341105 -0.563874 -4.877095 1.880790849211783e-38
1.338606 -0.547612 -4.868005 1.880790849211783e-38
1.337440 -0.531937 -4.863767 1.880790849211783e-38
1.340196 -0.517803 -4.873787 1.880790849211783e-38
1.345086 -0.504407 -4.891571 1.880790849211783e-38
1.341923 -0.487972 -4.880068 1.880790849211783e-38
1.341607 -0.472612 -4.878919 1.880790849211783e-38
1.342429 -0.457646 -4.881908 1.880790849211783e-38
1.333582 -0.439476 -4.849736 1.880790849211783e-38
1.335855 -0.425045 -4.858002 1.880790849211783e-38
1.342206 -0.411813 -4.881096 1.880790849211783e-38
1.339842 -0.395862 -4.872500 1.880790849211783e-38
1.341362 -0.381069 -4.878030 1.880790849211783e-38
1.337612 -0.364803 -4.864391 1.880790849211783e-38
1.344512 -0.351407 -4.889484 1.880790849211783e-38
1.342237 -0.335559 -4.881209 1.880790849211783e-38
1.340589 -0.319913 -4.875216 1.880790849211783e-38
1.338974 -0.304312 -4.869344 1.880790849211783e-38
1.344503 -0.290290 -4.889450 1.880790849211783e-38
1.341130 -0.274322 -4.877185 1.880790849211783e-38
1.336613 -0.258209 -4.860757 1.880790849211783e-38
1.342929 -0.244169 -4.883727 1.880790849211783e-38
1.344525 -0.229180 -4.889531 1.880790849211783e-38
1.341772 -0.213464 -4.879518 1.880790849211783e-38
1.345968 -0.198836 -4.894776 1.880790849211783e-38
1.341098 -0.182877 -4.877067 1.880790849211783e-38
1.345989 -0.168249 -4.894855 1.880790849211783e-38
1.339831 -0.152254 -4.872461 1.880790849211783e-38
1.340367 -0.137083 -4.874411 1.880790849211783e-38
1.339591 -0.121781 -4.871588 1.880790849211783e-38
1.343750 -0.106889 -4.886710 1.880790849211783e-38
1.342670 -0.091546 -4.882787 1.880790849211783e-38
1.340452 -0.076162 -4.874718 1.880790849211783e-38
1.341155 -0.060962 -4.877275 1.880790849211783e-38
1.341094 -0.045719 -4.877054 1.880790849211783e-38
1.339343 -0.030440 -4.870687 1.880790849211783e-38
1.339058 -0.015217 -4.869648 1.880790849211783e-38
1.338568 0.000000 -4.867867 1.880790849211783e-38
1.340742 0.015236 -4.875775 1.880790849211783e-38
1.342671 0.030515 -4.882787 1.880790849211783e-38
1.343351 0.045796 -4.885262 1.880790849211783e-38
1.341367 0.060971 -4.878045 1.880790849211783e-38
1.338069 0.076027 -4.866053 1.880790849211783e-38
1.338837 0.091284 -4.868846 1.880790849211783e-38
1.342585 0.106797 -4.882475 1.880790849211783e-38
1.341663 0.121969 -4.879124 1.880790849211783e-38
1.340481 0.137095 -4.874825 1.880790849211783e-38
1.341511 0.152444 -4.878571 1.880790849211783e-38
1.340796 0.167599 -4.875968 1.880790849211783e-38
1.340654 0.182816 -4.875455 1.880790849211783e-38
1.336165 0.197388 -4.859128 1.880790849211783e-38
1.338154 0.212888 -4.866361 1.880790849211783e-38
1.341174 0.228609 -4.877346 1.880790849211783e-38
1.339554 0.243555 -4.871454 1.880790849211783e-38
1.337637 0.258407 -4.864482 1.880790849211783e-38
1.340680 0.274230 -4.875549 1.880790849211783e-38
1.340211 0.289364 -4.873841 1.880790849211783e-38
1.346595 0.306044 -4.897058 1.880790849211783e-38
1.340675 0.319934 -4.875529 1.880790849211783e-38
1.341871 0.335468 -4.879879 1.880790849211783e-38
1.343944 0.351258 -4.887418 1.880790849211783e-38
1.342471 0.366128 -4.882061 1.880790849211783e-38
1.338583 0.380279 -4.867921 1.880790849211783e-38
1.341841 0.396453 -4.879769 1.880790849211783e-38
1.340452 0.411275 -4.874717 1.880790849211783e-38
1.338234 0.425802 -4.866651 1.880790849211783e-38
1.339152 0.441312 -4.869992 1.880790849211783e-38
1.343446 0.457993 -4.885608 1.880790849211783e-38
1.344870 0.473761 -4.890786 1.880790849211783e-38
1.343476 0.488537 -4.885715 1.880790849211783e-38
1.343845 0.503942 -4.887058 1.880790849211783e-38
1.340850 0.518056 -4.876166 1.880790849211783e-38
1.337759 0.532063 -4.864924 1.880790849211783e-38
1.337747 0.547260 -4.864882 1.880790849211783e-38
1.341200 0.563914 -4.877439 1.880790849211783e-38
1.335821 0.576832 -4.857877 1.880790849211783e-38
1.342282 0.594875 -4.881373 1.880790849211783e-38
1.342886 0.610403 -4.883569 1.880790849211783e-38
1.338057 0.623413 -4.866009 1.880790849211783e-38
1.340275 0.639677 -4.874074 1.880790849211783e-38
1.337391 0.653498 -4.863587 1.880790849211783e-38
1.341704 0.670852 -4.879272 1.880790849211783e-38
1.341207 0.685845 -4.877465 1.880790849211783e-38
1.340795 0.700870 -4.875966 1.880790849211783e-38
1.334416 0.712699 -4.852767 1.880790849211783e-38
1.342593 0.732323 -4.882504 1.880790849211783e-38
1.343147 0.747889 -4.884519 1.880790849211783e-38
1.340704 0.761764 -4.875635 1.880790849211783e-38
1.346582 0.780405 -4.897011 1.880790849211783e-38
1.336561 0.789786 -4.860569 1.880790849211783e-38
1.339914 0.806994 -4.872764 1.880790849211783e-38
1.342461 0.823783 -4.882025 1.880790849211783e-38
1.337326 0.835829 -4.863349 1.880790849211783e-38
1.342527 0.854335 -4.882264 1.880790849211783e-38
1.336116 0.865439 -4.858953 1.880790849211783e-38
1.341414 0.884114 -4.878219 1.880790849211783e-38
1.341005 0.899083 -4.876729 1.880790849211783e-38
1.340371 0.913889 -4.874424 1.880790849211783e-38
1.334445 0.925013 -4.852875 1.880790849211783e-38
1.337413 0.942269 -4.863669 1.880790849211783e-38
1.341172 0.960157 -4.877338 1.880790849211783e-38
1.336659 0.972116 -4.860925 1.880790849211783e-38
1.346066 0.994253 -4.895133 1.880790849211783e-38
1.345852 1.009389 -4.894358 1.880790849211783e-38
1.344384 1.023565 -4.889019 1.880790849211783e-38
1.340505 1.035845 -4.874910 1.880790849211783e-38
1.341695 1.052011 -4.879238 1.880790849211783e-38
1.343834 1.068959 -4.887018 1.880790849211783e-38
1.345024 1.085190 -4.891345 1.880790849211783e-38
1.337390 1.094228 -4.863584 1.880790849211783e-38
1.339065 1.110815 -4.869674 1.880790849211783e-38
1.343615 1.129858 -4.886222 1.880790849211783e-38
1.345757 1.146952 -4.894010 1.880790849211783e-38
1.344084 1.160799 -4.887925 1.880790849211783e-38
1.339122 1.171732 -4.869882 1.880790849211783e-38
1.335847 1.184047 -4.857974 1.880790849211783e-38
1.336848 1.200125 -4.861610 1.880790849211783e-38
1.341678 1.219707 -4.879178 1.880790849211783e-38
1.337691 1.231283 -4.864676 1.880790849211783e-38
1.338353 1.247102 -4.867085 1.880790849211783e-38
1.340466 1.264303 -4.874768 1.880790849211783e-38
1.340255 1.279334 -4.874002 1.880790849211783e-38
1.340820 1.295110 -4.876058 1.880790849211783e-38
1.340246 1.309786 -4.873971 1.880790849211783e-38
1.342633 1.327375 -4.882649 1.880790849211783e-38
1.340957 1.340957 -4.876554 1.880790849211783e-38
1.339318 1.354538 -4.870595 1.880790849211783e-38
1.346218 1.376814 -4.895689 1.880790849211783e-38
1.344745 1.390588 -4.890330 1.880790849211783e-38
1.340022 1.400932 -4.873154 1.880790849211783e-38
1.342775 1.419069 -4.883167 1.880790849211783e-38
1.339641 1.430980 -4.871768 1.880790849211783e-38
1.341531 1.448243 -4.878642 1.880790849211783e-38
1.345131 1.467415 -4.891733 1.880790849211783e-38
1.344583 1.482097 -4.889740 1.880790849211783e-38
1.339833 1.492087 -4.872468 1.880790849211783e-38
1.339285 1.506696 -4.870476 1.880790849211783e-38
1.344349 1.527669 -4.888889 1.880790849211783e-38
1.341158 1.539283 -4.877285 1.880790849211783e-38
1.341209 1.554583 -4.877471 1.880790849211783e-38
1.338679 1.566863 -4.868271 1.880790849211783e-38
1.341868 1.585844 -4.879869 1.880790849211783e-38
1.344208 1.603885 -4.888378 1.880790849211783e-38
1.337589 1.611187 -4.864308 1.880790849211783e-38
1.342174 1.631962 -4.880982 1.880790849211783e-38
1.344639 1.650239 -4.889945 1.880790849211783e-38
1.343604 1.664237 -4.886181 1.880790849211783e-38
1.343028 1.678785 -4.884087 1.880790849211783e-38
1.337866 1.687536 -4.865314 1.880790849211783e-38
1.340886 1.706582 -4.876296 1.880790849211783e-38
1.342703 1.724153 -4.882906 1.880790849211783e-38
1.342252 1.738827 -4.881267 1.880790849211783e-38
1.339321 1.750249 -4.870605 1.880790849211783e-38
1.344046 1.771698 -4.887790 1.880790849211783e-38
1.338522 1.779626 -4.867701 1.880790849211783e-38
1.340344 1.797280 -4.874327 1.880790849211783e-38
1.339473 1.811333 -4.871159 1.880790849211783e-38
1.340967 1.828591 -4.876592 1.880790849211783e-38
1.338394 1.840291 -4.867234 1.880790849211783e-38
1.343299 1.862301 -4.885073 1.880790849211783e-38
1.342694 1.876720 -4.882872 1.880790849211783e-38
1.340527 1.888925 -4.874992 1.880790849211783e-38
1.338039 1.900624 -4.865945 1.880790849211783e-38
1.340367 1.919162 -4.874410 1.880790849211783e-38
1.341821 1.936491 -4.879696 1.880790849211783e-38
0.793010 -1.140509 -2.851476 4.333194603576166e-39
0.801302 -1.143430 -2.881290 4.333194603576166e-39
0.807477 -1.143170 -2.903497 4.333194603576166e-39
0.817010 -1.147485 -2.937772 4.333194603576166e-39
0.815308 -1.135935 -2.931654 4.333194603576166e-39
0.827735 -1.143948 -2.976339 4.333194603576166e-39
0.833048 -1.141930 -2.995441 4.333194603576166e-39
0.835909 -1.136461 -3.005730 4.333194603576166e-39
0.845583 -1.140112 -3.040516 4.333194603576166e-39
0.854575 -1.142633 -3.072846 4.333194603576166e-39
0.862358 -1.143352 -3.100836 4.333194603576166e-39
0.869966 -1.143663 -3.128191 4.333194603576166e-39
0.879419 -1.146208 -3.162180 4.333194603576166e-39
0.882644 -1.140495 -3.173778 4.333194603576166e-39
0.894384 -1.145616 -3.215993 4.333194603576166e-39
0.902371 -1.145707 -3.244711 4.333194603576166e-39
0.909170 -1.144125 -3.269161 4.333194603576166e-39
0.915950 -1.142364 -3.293538 4.333194603576166e-39
0.925781 -1.144223 -3.328887 4.333194603576166e-39
0.927844 -1.136348 -3.336307 4.333194603576166e-39
0.943521 -1.144946 -3.392676 4.333194603576166e-39
0.947423 -1.139037 -3.406709 4.333194603576166e-39
0.957410 -1.140286 -3.442618 4.333194603576166e-39
0.968545 -1.142666 -3.482659 4.333194603576166e-39
0.976576 -1.141168 -3.511536 4.333194603576166e-39
0.985838 -1.140913 -3.544839 4.333194603576166e-39
0.997948 -1.143715 -3.588382 4.333194603576166e-39
1.006663 -1.142393 -3.619720 4.333194603576166e-39
1.017532 -1.143295 -3.658804 4.333194603576166e-39
1.024655 -1.139785 -3.684416 4.333194603576166e-39
1.029453 -1.133555 -3.701669 4.333194603576166e-39
1.044740 -1.138649 -3.756637 4.333194603576166e-39
1.055558 -1.138579 -3.795535 4.333194603576166e-39
1.072852 -1.145180 -3.857722 4.333194603576166e-39
1.080601 -1.141309 -3.885586 4.333194603576166e-39
1.089013 -1.137958 -3.915833 4.333194603576166e-39
1.100096 -1.137178 -3.955684 4.333194603576166e-39
1.115418 -1.140483 -4.010777 4.333194603576166e-39
1.126260 -1.138915 -4.049765 4.333194603576166e-39
1.140418 -1.140418 -4.100672 4.333194603576166e-39
1.155682 -1.142697 -4.155558 4.333194603576166e-39
1.166514 -1.140300 -4.194506 4.333194603576166e-39
1.181387 -1.141565 -4.247987 4.333194603576166e-39
1.195086 -1.141374 -4.297246 4.333194603576166e-39
1.210957 -1.142926 -4.354313 4.333194603576166e-39
1.221688 -1.139328 -4.392901 4.333194603576166e-39
1.241065 -1.143453 -4.462576 4.333194603576166e-39
1.258084 -1.144997 -4.523769 4.333194603576166e-39
1.276994 -1.147860 -4.591766 4.333194603576166e-39
1.289587 -1.144689 -4.637048 4.333194603576166e-39
1.304403 -1.143185 -4.690322 4.333194603576166e-39
1.323421 -1.144982 -4.758708 4.333194603576166e-39
1.337674 -1.142283 -4.809958 4.333194603576166e-39
1.357826 -1.144235 -4.882419 4.333194603576166e-39
1.353771 -1.125607 -4.867838 1.880790849211783e-38
1.355212 -1.111578 -4.873018 1.880790849211783e-38
1.358006 -1.098611 -4.883066 1.880790849211783e-38
1.357567 -1.083003 -4.881487 1.880790849211783e-38
1.354629 -1.065438 -4.870923 1.880790849211783e-38
1.356297 -1.051511 -4.876920 1.880790849211783e-38
1.358092 -1.037643 -4.883375 1.880790849211783e-38
1.357360 -1.021833 -4.880743 1.880790849211783e-38
1.355372 -1.005108 -4.873596 1.880790849211783e-38
1.361569 -0.994404 -4.895878 1.880790849211783e-38
1.353724 -0.973465 -4.867670 1.880790849211783e-38
1.356671 -0.960340 -4.878265 1.880790849211783e-38
1.356992 -0.945320 -4.879420 1.880790849211783e-38
1.359487 -0.931783 -4.888393 1.880790849211783e-38
1.358385 -0.915765 -4.884428 1.880790849211783e-38
1.352160 -0.896376 -4.862046 1.880790849211783e-38
1.357065 -0.884380 -4.879684 1.880790849211783e-38
1.356359 -0.868680 -4.877145 1.880790849211783e-38
1.358357 -0.854697 -4.884330 1.880790849211783e-38
1.352706 -0.835942 -4.864009 1.880790849211783e-38
1.354559 -0.821868 -4.870673 1.880790849211783e-38
1.354584 -0.806662 -4.870759 1.880790849211783e-38
1.357937 -0.793401 -4.882817 1.880790849211783e-38
1.357240 -0.777744 -4.880311 1.880790849211783e-38
1.352750 -0.759972 -4.864166 1.880790849211783e-38
1.352948 -0.744882 -4.864880 1.880790849211783e-38
1.355353 -0.730977 -4.873526 1.880790849211783e-38
1.357546 -0.716906 -4.881412 1.880790849211783e-38
1.358831 -0.702317 -4.886033 1.880790849211783e-38
1.353127 -0.684165 -4.865521 1.880790849211783e-38
1.354638 -0.669709 -4.870957 1.880790849211783e-38
1.360672 -0.657403 -4.892654 1.880790849211783e-38
1.355996 -0.639908 -4.875839 1.880790849211783e-38
1.356915 -0.625096 -4.879144 1.880790849211783e-38
1.352502 -0.607866 -4.863277 1.880790849211783e-38
1.361958 -0.596813 -4.897276 1.880790849211783e-38
1.357322 -0.579531 -4.880608 1.880790849211783e-38
1.350679 -0.561518 -4.856720 1.880790849211783e-38
1.357749 -0.549202 -4.882143 1.880790849211783e-38
1.356095 -0.533296 -4.876194 1.880790849211783e-38
1.355612 -0.517874 -4.874457 1.880790849211783e-38
1.356420 -0.502942 -4.877365 1.880790849211783e-38
1.358509 -0.488453 -4.884877 1.880790849211783e-38
1.358009 -0.473014 -4.883078 1.880790849211783e-38
1.355812 -0.457015 -4.875177 1.880790849211783e-38
1.358893 -0.442785 -4.886255 1.880790849211783e-38
1.360864 -0.428137 -4.893343 1.880790849211783e-38
1.358147 -0.412022 -4.883574 1.880790849211783e-38
1.356337 -0.396233 -4.877065 1.880790849211783e-38
1.351413 -0.379610 -4.859361 1.880790849211783e-38
1.360733 -0.366939 -4.892874 1.880790849211783e-38
1.358444 -0.351058 -4.884640 1.880790849211783e-38
1.352257 -0.334266 -4.862394 1.880790849211783e-38
1.361127 -0.321165 -4.894290 1.880790849211783e-38
1.351427 -0.303691 -4.859409 1.880790849211783e-38
1.361983 -0.290760 -4.897367 1.880790849211783e-38
1.358025 -0.274657 -4.883135 1.880790849211783e-38
1.359806 -0.259738 -4.889538 1.880790849211783e-38
1.351542 -0.242974 -4.859825 1.880790849211783e-38
1.355299 -0.228421 -4.873332 1.880790849211783e-38
1.357718 -0.213574 -4.882030 1.880790849211783e-38
1.356696 -0.198169 -4.878357 1.880790849211783e-38
1.354840 -0.182675 -4.871684 1.880790849211783e-38
1.359603 -0.168041 -4.888807 1.880790849211783e-38
1.352659 -0.151984 -4.863838 1.880790849211783e-38
1.354255 -0.136947 -4.869577 1.880790849211783e-38
1.352329 -0.121558 -4.862653 1.880790849211783e-38
1.350658 -0.106232 -4.856644 1.880790849211783e-38
1.355028 -0.091350 -4.872359 1.880790849211783e-38
1.357450 -0.076261 -4.881068 1.880790849211783e-38
1.350480 -0.060696 -4.856005 1.880790849211783e-38
1.353043 -0.045608 -4.865220 1.880790849211783e-38
1.355796 -0.030467 -4.875120 1.880790849211783e-38
1.359422 -0.015274 -4.888159 1.880790849211783e-38
1.355491 0.000000 -4.874024 1.880790849211783e-38
1.354736 0.015222 -4.871307 1.880790849211783e-38
1.354946 0.030448 -4.872062 1.880790849211783e-38
1.357491 0.045758 -4.881216 1.880790849211783e-38
1.356999 0.060989 -4.879445 1.880790849211783e-38
1.357616 0.076271 -4.881664 1.880790849211783e-38
1.356671 0.091461 -4.878267 1.880790849211783e-38
1.354306 0.106518 -4.869764 1.880790849211783e-38
1.354115 0.121718 -4.869074 1.880790849211783e-38
1.352606 0.136780 -4.863648 1.880790849211783e-38
1.351769 0.151884 -4.860640 1.880790849211783e-38
1.356426 0.167648 -4.877384 1.880790849211783e-38
1.356001 0.182832 -4.875857 1.880790849211783e-38
1.355366 0.197975 -4.873572 1.880790849211783e-38
1.361091 0.214104 -4.894159 1.880790849211783e-38
1.357735 0.228832 -4.882091 1.880790849211783e-38
1.356330 0.243835 -4.877042 1.880790849211783e-38
1.356570 0.259120 -4.877904 1.880790849211783e-38
1.354295 0.273902 -4.869720 1.880790849211783e-38
1.359405 0.290210 -4.888098 1.880790849211783e-38
1.355776 0.304669 -4.875049 1.880790849211783e-38
1.362422 0.321470 -4.898944 1.880790849211783e-38
1.357113 0.335466 -4.879854 1.880790849211783e-38
1.357973 0.350937 -4.882949 1.880790849211783e-38
1.355707 0.365584 -4.874801 1.880790849211783e-38
1.359555 0.381897 -4.888635 1.880790849211783e-38
1.356811 0.396372 -4.878767 1.880790849211783e-38
1.357145 0.411718 -4.879970 1.880790849211783e-38
1.355010 0.426295 -4.872292 1.880790849211783e-38
1.353372 0.440987 -4.866405 1.880790849211783e-38
1.354210 0.456475 -4.869419 1.880790849211783e-38
1.355621 0.472183 -4.874491 1.880790849211783e-38
1.354667 0.487071 -4.871059 1.880790849211783e-38
1.358995 0.503897 -4.886623 1.880790849211783e-38
1.353617 0.517112 -4.867283 1.880790849211783e-38
1.356009 0.533262 -4.875885 1.880790849211783e-38
1.353683 0.547557 -4.867524 1.880790849211783e-38
1.358419 0.564736 -4.884552 1.880790849211783e-38
1.355444 0.578729 -4.873853 1.880790849211783e-38
1.356585 0.594459 -4.877957 1.880790849211783e-38
1.357612 0.610163 -4.881650 1.880790849211783e-38
1.355528 0.624457 -4.874158 1.880790849211783e-38
1.356774 0.640275 -4.878634 1.880790849211783e-38
1.352851 0.653625 -4.864530 1.880790849211783e-38
1.357075 0.670913 -4.879717 1.880790849211783e-38
1.354217 0.684716 -4.869442 1.880790849211783e-38
1.361848 0.703877 -4.896882 1.880790849211783e-38
1.355688 0.715925 -4.874733 1.880790849211783e-38
1.357471 0.732119 -4.881145 1.880790849211783e-38
1.359094 0.748265 -4.886978 1.880790849211783e-38
1.356713 0.762198 -4.878417 1.880790849211783e-38
1.360152 0.779413 -4.890783 1.880790849211783e-38
1.358100 0.793497 -4.883405 1.880790849211783e-38
1.354492 0.806608 -4.870432 1.880790849211783e-38
1.356753 0.823199 -4.878561 1.880790849211783e-38
1.360073 0.840495 -4.890501 1.880790849211783e-38
1.356747 0.853684 -4.878540 1.880790849211783e-38
1.357372 0.869328 -4.880788 1.880790849211783e-38
1.359176 0.885755 -4.887275 1.880790849211783e-38
1.353150 0.897032 -4.865605 1.880790849211783e-38
1.355572 0.913869 -4.874313 1.880790849211783e-38
1.357083 0.930135 -4.879747 1.880790849211783e-38
1.358250 0.946196 -4.883943 1.880790849211783e-38
1.356361 0.960120 -4.877150 1.880790849211783e-38
1.353307 0.973165 -4.866169 1.880790849211783e-38
1.359042 0.992559 -4.886791 1.880790849211783e-38
1.352626 1.003071 -4.863721 1.880790849211783e-38
1.359008 1.023073 -4.886669 1.880790849211783e-38
1.354652 1.035015 -4.871006 1.880790849211783e-38
1.356219 1.051451 -4.876642 1.880790849211783e-38
1.357055 1.067346 -4.879646 1.880790849211783e-38
1.353001 1.079360 -4.865070 1.880790849211783e-38
1.355781 1.096811 -4.875064 1.880790849211783e-38
1.357082 1.113112 -4.879745 1.880790849211783e-38
1.353783 1.125617 -4.867882 1.880790849211783e-38
1.356354 1.142995 -4.877128 1.880790849211783e-38
1.357641 1.159333 -4.881752 1.880790849211783e-38
1.358550 1.175375 -4.885023 1.880790849211783e-38
1.355463 1.187934 -4.873922 1.880790849211783e-38
1.361094 1.208162 -4.894170 1.880790849211783e-38
1.356658 1.219468 -4.878220 1.880790849211783e-38
1.356929 1.234958 -4.879195 1.880790849211783e-38
1.353000 1.246584 -4.865066 1.880790849211783e-38
1.356771 1.265304 -4.878627 1.880790849211783e-38
1.356603 1.280389 -4.878022 1.880790849211783e-38
1.354950 1.294053 -4.872077 1.880790849211783e-38
1.354276 1.308626 -4.869654 1.880790849211783e-38
1.359457 1.328907 -4.888285 1.880790849211783e-38
1.359957 1.344676 -4.890081 1.880790849211783e-38
1.354370 1.354370 -4.869991 1.880790849211783e-38
1.355080 1.370306 -4.872545 1.880790849211783e-38
1.353802 1.384225 -4.867950 1.880790849211783e-38
1.358395 1.404183 -4.884464 1.880790849211783e-38
1.361694 1.422893 -4.896327 1.880790849211783e-38
1.357877 1.434162 -4.882603 1.880790849211783e-38
1.352486 1.443665 -4.863219 1.880790849211783e-38
1.356936 1.463661 -4.879220 1.880790849211783e-38
1.353219 1.474857 -4.865855 1.880790849211783e-38
1.358822 1.496231 -4.886001 1.880790849211783e-38
1.356799 1.509248 -4.878725 1.880790849211783e-38
1.356307 1.523940 -4.876956 1.880790849211783e-38
1.360278 1.543686 -4.891235 1.880790849211783e-38
1.359091 1.557610 -4.886969 1.880790849211783e-38
1.357279 1.570783 -4.880453 1.880790849211783e-38
1.351598 1.579395 -4.860023 1.880790849211783e-38
1.359692 1.604131 -4.889128 1.880790849211783e-38
1.355828 1.614807 -4.875236 1.880790849211783e-38
1.359420 1.634358 -4.888149 1.880790849211783e-38
1.358139 1.648079 -4.883545 1.880790849211783e-38
1.354978 1.659467 -4.872179 1.880790849211783e-38
1.352232 1.671298 -4.862304 1.880790849211783e-38
1.355556 1.690638 -4.874259 1.880790849211783e-38
1.358019 1.708967 -4.883112 1.880790849211783e-38
1.354524 1.719788 -4.870544 1.880790849211783e-38
1.356637 1.737715 -4.878145 1.880790849211783e-38
1.356629 1.752948 -4.878116 1.880790849211783e-38
1.354572 1.765510 -4.870719 1.880790849211783e-38
1.354302 1.780375 -4.869748 1.880790849211783e-38
1.361916 1.805686 -4.897125 1.880790849211783e-38
1.354255 1.810746 -4.869579 1.880790849211783e-38
1.355267 1.827327 -4.873219 1.880790849211783e-38
1.350899 1.836616 -4.857512 1.880790849211783e-38
1.354601 1.856869 -4.870823 1.880790849211783e-38
1.356370 1.874534 -4.877185 1.880790849211783e-38
1.361243 1.896563 -4.894704 1.880790849211783e-38
1.355772 1.904174 -4.875033 1.880790849211783e-38
1.356820 1.920891 -4.878800 1.880790849211783e-38
1.354818 1.933280 -4.871604 1.880790849211783e-38
0.800120 -1.137949 -2.845075 4.333194603576166e-39
0.804526 -1.135275 -2.860740 4.333194603576166e-39
0.820683 -1.148956 -2.918191 4.333194603576166e-39
0.821758 -1.141331 -2.922015 4.333194603576166e-39
0.829127 -1.142353 -2.948219 4.333194603576166e-39
0.834141 -1.139993 -2.966047 4.333194603576166e-39
0.842143 -1.141572 -2.994500 4.333194603576166e-39
0.843388 -1.133889 -2.998928 4.333194603576166e-39
0.857680 -1.143573 -3.049745 4.333194603576166e-39
0.864371 -1.142890 -3.073538 4.333194603576166e-39
0.873224 -1.144894 -3.105019 4.333194603576166e-39
0.878235 -1.141706 -3.122837 4.333194603576166e-39
0.882653 -1.137641 -3.138545 4.333194603576166e-39
0.895299 -1.143994 -3.183514 4.333194603576166e-39
0.900965 -1.141223 -3.203661 4.333194603576166e-39
0.907073 -1.138880 -3.225378 4.333194603576166e-39
0.914164 -1.137627 -3.250594 4.333194603576166e-39
0.926635 -1.142850 -3.294937 4.333194603576166e-39
0.929992 -1.136657 -3.306876 4.333194603576166e-39
0.942476 -1.141443 -3.351264 4.333194603576166e-39
0.954076 -1.144891 -3.392512 4.333194603576166e-39
0.961046 -1.142577 -3.417296 4.333194603576166e-39
0.973015 -1.145996 -3.459857 4.333194603576166e-39
0.979988 -1.143319 -3.484649 4.333194603576166e-39
0.991372 -1.145585 -3.525130 4.333194603576166e-39
1.001889 -1.146606 -3.562526 4.333194603576166e-39
1.007694 -1.142053 -3.583167 4.333194603576166e-39
1.017936 -1.142351 -3.619587 4.333194603576166e-39
1.024703 -1.138559 -3.643648 4.333194603576166e-39
1.040817 -1.144898 -3.700945 4.333194603576166e-39
1.048831 -1.142060 -3.729441 4.333194603576166e-39
1.061662 -1.144236 -3.775068 4.333194603576166e-39
1.072463 -1.143960 -3.813473 4.333194603576166e-39
1.082832 -1.142989 -3.850344 4.333194603576166e-39
1.093086 -1.141668 -3.886807 4.333194603576166e-39
1.100061 -1.136729 -3.911606 4.333194603576166e-39
1.114206 -1.138966 -3.961905 4.333194603576166e-39
1.128769 -1.141311 -4.013688 4.333194603576166e-39
1.142460 -1.142460 -4.062369 4.333194603576166e-39
1.153844 -1.141024 -4.102849 4.333194603576166e-39
1.164592 -1.138712 -4.141067 4.333194603576166e-39
1.183813 -1.144353 -4.209414 4.333194603576166e-39
1.190983 -1.138051 -4.234909 4.333194603576166e-39
1.204570 -1.137649 -4.283221 4.333194603576166e-39
1.219902 -1.138575 -4.337738 4.333194603576166e-39
1.237884 -1.141604 -4.401680 4.333194603576166e-39
1.253620 -1.142187 -4.457632 4.333194603576166e-39
1.268440 -1.141596 -4.510332 4.333194603576166e-39
1.283773 -1.141132 -4.564852 4.333194603576166e-39
1.301336 -1.142284 -4.627304 4.333194603576166e-39
1.311102 -1.136288 -4.662028 4.333194603576166e-39
1.337597 -1.144389 -4.756240 4.333194603576166e-39
1.349061 -1.139207 -4.797004 4.333194603576166e-39
1.372474 -1.143728 -4.880254 4.333194603576166e-39
1.372730 -1.128689 -4.881166 1.880790849211783e-38
1.367513 -1.109205 -4.862614 1.880790849211783e-38
1.372989 -1.098391 -4.882088 1.880790849211783e-38
1.373802 -1.083777 -4.884977 1.880790849211783e-38
1.373924 -1.068608 -4.885414 1.880790849211783e-38
1.371831 -1.051737 -4.877970 1.880790849211783e-38
1.372266 -1.036824 -4.879517 1.880790849211783e-38
1.370371 -1.020165 -4.872777 1.880790849211783e-38
1.370732 -1.005203 -4.874061 1.880790849211783e-38
1.370406 -0.989737 -4.872901 1.880790849211783e-38
1.369007 -0.973516 -4.867929 1.880790849211783e-38
1.373350 -0.961345 -4.883372 1.880790849211783e-38
1.373218 -0.945995 -4.882903 1.880790849211783e-38
1.371388 -0.929496 -4.876394 1.880790849211783e-38
1.373982 -0.915988 -4.885617 1.880790849211783e-38
1.369154 -0.897557 -4.868452 1.880790849211783e-38
1.367713 -0.881415 -4.863326 1.880790849211783e-38
1.370745 -0.868139 -4.874108 1.880790849211783e-38
1.372233 -0.853834 -4.879400 1.880790849211783e-38
1.374415 -0.839920 -4.887157 1.880790849211783e-38
1.375474 -0.825284 -4.890922 1.880790849211783e-38
1.369171 -0.806290 -4.868511 1.880790849211783e-38
1.370127 -0.791629 -4.871911 1.880790849211783e-38
1.373870 -0.778526 -4.885220 1.880790849211783e-38
1.369588 -0.760882 -4.869996 1.880790849211783e-38
1.370195 -0.745995 -4.872153 1.880790849211783e-38
1.372990 -0.732261 -4.882089 1.880790849211783e-38
1.372545 -0.716774 -4.880508 1.880790849211783e-38
1.371308 -0.700891 -4.876109 1.880790849211783e-38
1.370453 -0.685226 -4.873068 1.880790849211783e-38
1.372096 -0.670802 -4.878911 1.880790849211783e-38
1.368544 -0.653860 -4.866282 1.880790849211783e-38
1.373106 -0.640783 -4.882503 1.880790849211783e-38
1.370450 -0.624316 -4.873059 1.880790849211783e-38
1.372586 -0.610038 -4.880653 1.880790849211783e-38
1.369900 -0.593624 -4.871105 1.880790849211783e-38
1.370986 -0.578861 -4.874964 1.880790849211783e-38
1.375897 -0.565646 -4.892426 1.880790849211783e-38
1.369098 -0.547639 -4.868252 1.880790849211783e-38
1.369372 -0.532534 -4.869226 1.880790849211783e-38
1.369784 -0.517474 -4.870690 1.880790849211783e-38
1.369456 -0.502134 -4.869525 1.880790849211783e-38
1.368083 -0.486429 -4.864641 1.880790849211783e-38
1.374639 -0.473487 -4.887953 1.880790849211783e-38
1.365951 -0.455317 -4.857062 1.880790849211783e-38
1.370394 -0.441571 -4.872860 1.880790849211783e-38
1.371155 -0.426582 -4.875565 1.880790849211783e-38
1.373371 -0.412011 -4.883447 1.880790849211783e-38
1.369707 -0.395693 -4.870416 1.880790849211783e-38
1.374794 -0.381887 -4.888504 1.880790849211783e-38
1.377383 -0.367302 -4.897711 1.880790849211783e-38
1.372002 -0.350623 -4.878579 1.880790849211783e-38
1.372572 -0.335518 -4.880604 1.880790849211783e-38
1.371173 -0.319940 -4.875628 1.880790849211783e-38
1.369870 -0.304416 -4.870996 1.880790849211783e-38
1.371615 -0.289563 -4.877203 1.880790849211783e-38
1.372249 -0.274450 -4.879455 1.880790849211783e-38
1.372400 -0.259231 -4.879993 1.880790849211783e-38
1.372994 -0.244088 -4.882106 1.880790849211783e-38
1.365307 -0.227551 -4.854771 1.880790849211783e-38
1.373039 -0.213584 -4.882264 1.880790849211783e-38
1.369667 -0.197841 -4.870276 1.880790849211783e-38
1.373207 -0.183094 -4.882861 1.880790849211783e-38
1.369809 -0.167421 -4.870779 1.880790849211783e-38
1.372833 -0.152537 -4.881531 1.880790849211783e-38
1.370059 -0.137006 -4.871670 1.880790849211783e-38
1.374927 -0.122216 -4.888978 1.880790849211783e-38
1.371454 -0.106669 -4.876628 1.880790849211783e-38
1.378749 -0.091917 -4.902569 1.880790849211783e-38
1.371827 -0.076213 -4.877955 1.880790849211783e-38
1.372957 -0.061020 -4.881975 1.880790849211783e-38
1.371555 -0.045718 -4.876987 1.880790849211783e-38
1.372691 -0.030504 -4.881027 1.880790849211783e-38
1.370645 -0.015229 -4.873753 1.880790849211783e-38
1.373559 0.000000 -4.884112 1.880790849211783e-38
1.367910 0.015199 -4.864028 1.880790849211783e-38
1.374500 0.030544 -4.887461 1.880790849211783e-38
1.374656 0.045822 -4.888014 1.880790849211783e-38
1.366422 0.060730 -4.858735 1.880790849211783e-38
1.371503 0.076195 -4.876804 1.880790849211783e-38
1.368409 0.091227 -4.865801 1.880790849211783e-38
1.372547 0.106754 -4.880515 1.880790849211783e-38
1.369287 0.121714 -4.868922 1.880790849211783e-38
1.368738 0.136874 -4.866971 1.880790849211783e-38
1.369958 0.152218 -4.871309 1.880790849211783e-38
1.371633 0.167644 -4.877265 1.880790849211783e-38
1.369178 0.182557 -4.868537 1.880790849211783e-38
1.369345 0.197794 -4.869131 1.880790849211783e-38
1.372178 0.213450 -4.879202 1.880790849211783e-38
1.372814 0.228802 -4.881466 1.880790849211783e-38
1.369783 0.243517 -4.870687 1.880790849211783e-38
1.373261 0.259394 -4.883053 1.880790849211783e-38
1.370548 0.274110 -4.873409 1.880790849211783e-38
1.375052 0.290289 -4.889422 1.880790849211783e-38
1.373086 0.305130 -4.882431 1.880790849211783e-38
1.371712 0.320066 -4.877545 1.880790849211783e-38
1.366238 0.333969 -4.858081 1.880790849211783e-38
1.371196 0.350417 -4.875710 1.880790849211783e-38
1.371454 0.365721 -4.876630 1.880790849211783e-38
1.368312 0.380087 -4.865458 1.880790849211783e-38
1.373428 0.396768 -4.883647 1.880790849211783e-38
1.370158 0.411047 -4.872021 1.880790849211783e-38
1.369379 0.426029 -4.869250 1.880790849211783e-38
1.373286 0.442503 -4.883141 1.880790849211783e-38
1.373731 0.457910 -4.884726 1.880790849211783e-38
1.369091 0.471576 -4.868226 1.880790849211783e-38
1.364069 0.485002 -4.850370 1.880790849211783e-38
1.371244 0.502789 -4.875881 1.880790849211783e-38
1.373655 0.518936 -4.884455 1.880790849211783e-38
1.373381 0.534093 -4.883483 1.880790849211783e-38
1.370577 0.548231 -4.873509 1.880790849211783e-38
1.370896 0.563591 -4.874646 1.880790849211783e-38
1.372157 0.579355 -4.879129 1.880790849211783e-38
1.372629 0.594806 -4.880808 1.880790849211783e-38
1.371050 0.609356 -4.875193 1.880790849211783e-38
1.372712 0.625347 -4.881104 1.880790849211783e-38
1.369198 0.638959 -4.868607 1.880790849211783e-38
1.372324 0.655666 -4.879723 1.880790849211783e-38
1.376191 0.672804 -4.893471 1.880790849211783e-38
1.372724 0.686362 -4.881145 1.880790849211783e-38
1.369757 0.700098 -4.870596 1.880790849211783e-38
1.369644 0.715258 -4.870191 1.880790849211783e-38
1.370522 0.730945 -4.873316 1.880790849211783e-38
1.368987 0.745338 -4.867858 1.880790849211783e-38
1.370957 0.761643 -4.874864 1.880790849211783e-38
1.370722 0.776742 -4.874026 1.880790849211783e-38
1.366701 0.789649 -4.859728 1.880790849211783e-38
1.374555 0.809460 -4.887655 1.880790849211783e-38
1.365715 0.819429 -4.856221 1.880790849211783e-38
1.365467 0.834452 -4.855341 1.880790849211783e-38
1.370903 0.853006 -4.874669 1.880790849211783e-38
1.371314 0.868499 -4.876132 1.880790849211783e-38
1.370685 0.883330 -4.873893 1.880790849211783e-38
1.366625 0.895899 -4.859459 1.880790849211783e-38
1.371034 0.914023 -4.875134 1.880790849211783e-38
1.369614 0.928294 -4.870085 1.880790849211783e-38
1.368431 0.942697 -4.865879 1.880790849211783e-38
1.368274 0.957792 -4.865322 1.880790849211783e-38
1.373334 0.976593 -4.883312 1.880790849211783e-38
1.373055 0.991651 -4.882321 1.880790849211783e-38
1.373302 1.007088 -4.883199 1.880790849211783e-38
1.373689 1.022635 -4.884575 1.880790849211783e-38
1.371299 1.036093 -4.876078 1.880790849211783e-38
1.369349 1.049834 -4.869143 1.880790849211783e-38
1.373106 1.067972 -4.882505 1.880790849211783e-38
1.368594 1.079668 -4.866458 1.880790849211783e-38
1.375898 1.100718 -4.892431 1.880790849211783e-38
1.368887 1.110320 -4.867503 1.880790849211783e-38
1.370722 1.127038 -4.874024 1.880790849211783e-38
1.365279 1.137732 -4.854671 1.880790849211783e-38
1.372481 1.158984 -4.880280 1.880790849211783e-38
1.371382 1.173294 -4.876374 1.880790849211783e-38
1.370086 1.187408 -4.871764 1.880790849211783e-38
1.374504 1.206509 -4.887472 1.880790849211783e-38
1.370895 1.218573 -4.874640 1.880790849211783e-38
1.368379 1.231541 -4.865693 1.880790849211783e-38
1.377452 1.255012 -4.897956 1.880790849211783e-38
1.369458 1.262945 -4.869531 1.880790849211783e-38
1.369524 1.278223 -4.869767 1.880790849211783e-38
1.377238 1.300725 -4.897196 1.880790849211783e-38
1.368471 1.307650 -4.866021 1.880790849211783e-38
1.368686 1.323063 -4.866787 1.880790849211783e-38
1.374726 1.344176 -4.888262 1.880790849211783e-38
1.375643 1.360358 -4.891525 1.880790849211783e-38
1.368707 1.368707 -4.866861 1.880790849211783e-38
1.373759 1.389022 -4.884824 1.880790849211783e-38
1.371345 1.401820 -4.876243 1.880790849211783e-38
1.372393 1.418139 -4.879967 1.880790849211783e-38
1.371577 1.432536 -4.877065 1.880790849211783e-38
1.370596 1.446741 -4.873580 1.880790849211783e-38
1.370917 1.462311 -4.874719 1.880790849211783e-38
1.365632 1.471848 -4.855928 1.880790849211783e-38
1.376862 1.499250 -4.895858 1.880790849211783e-38
1.375674 1.513242 -4.891636 1.880790849211783e-38
1.371938 1.524375 -4.878349 1.880790849211783e-38
1.369833 1.537257 -4.870865 1.880790849211783e-38
1.372177 1.555134 -4.879201 1.880790849211783e-38
1.371637 1.569763 -4.877281 1.880790849211783e-38
1.370822 1.584061 -4.874382 1.880790849211783e-38
1.370566 1.598994 -4.873474 1.880790849211783e-38
1.371814 1.615692 -4.877908 1.880790849211783e-38
1.373855 1.633361 -4.885167 1.880790849211783e-38
1.369770 1.643724 -4.870642 1.880790849211783e-38
1.370803 1.660195 -4.874316 1.880790849211783e-38
1.369465 1.673791 -4.869558 1.880790849211783e-38
1.367586 1.686690 -4.862876 1.880790849211783e-38
1.373314 1.709014 -4.883244 1.880790849211783e-38
1.373673 1.724723 -4.884520 1.880790849211783e-38
1.374054 1.740468 -4.885873 1.880790849211783e-38
1.376014 1.758240 -4.892844 1.880790849211783e-38
1.375910 1.773396 -4.892475 1.880790849211783e-38
1.370508 1.781660 -4.873264 1.880790849211783e-38
1.373579 1.800915 -4.884185 1.880790849211783e-38
1.373048 1.815474 -4.882296 1.880790849211783e-38
1.371645 1.828861 -4.877310 1.880790849211783e-38
1.373005 1.845930 -4.882145 1.880790849211783e-38
1.371315 1.858894 -4.876135 1.880790849211783e-38
1.375302 1.879580 -4.890312 1.880790849211783e-38
1.373593 1.892506 -4.884234 1.880790849211783e-38
1.369814 1.902519 -4.870797 1.880790849211783e-38
1.372143 1.921000 -4.879080 1.880790849211783e-38
1.371190 1.934901 -4.875689 1.880790849211783e-38
0.814050 -1.145037 -2.862797 4.333194603576166e-39
0.813462 -1.135270 -2.860728 4.333194603576166e-39
0.826954 -1.145013 -2.908178 4.333194603576166e-39
0.822159 -1.129339 -2.891315 4.333194603576166e-39
0.832993 -1.135068 -2.929416 4.333194603576166e-39
0.844773 -1.141837 -2.970844 4.333194603576166e-39
0.850735 -1.140546 -2.991809 4.333194603576166e-39
0.853881 -1.135381 -3.002873 4.333194603576166e-39
0.863474 -1.138646 -3.036607 4.333194603576166e-39
0.868844 -1.136180 -3.055493 4.333194603576166e-39
0.880989 -1.142382 -3.098206 4.333194603576166e-39
0.889174 -1.143224 -3.126988 4.333194603576166e-39
0.893584 -1.139074 -3.142497 4.333194603576166e-39
0.898827 -1.135880 -3.160935 4.333194603576166e-39
0.908009 -1.137506 -3.193228 4.333194603576166e-39
0.918268 -1.140267 -3.229306 4.333194603576166e-39
0.924260 -1.137551 -3.250378 4.333194603576166e-39
0.936854 -1.142756 -3.294666 4.333194603576166e-39
0.944711 -1.141959 -3.322299 4.333194603576166e-39
0.952373 -1.140754 -3.349242 4.333194603576166e-39
0.962276 -1.142042 -3.384071 4.333194603576166e-39
0.967832 -1.138000 -3.403606 4.333194603576166e-39
0.982783 -1.144780 -3.456186 4.333194603576166e-39
0.986909 -1.138741 -3.470696 4.333194603576166e-39
0.997217 -1.139676 -3.506946 4.333194603576166e-39
1.007930 -1.140844 -3.544623 4.333194603576166e-39
1.023255 -1.146945 -3.598517 4.333194603576166e-39
1.022334 -1.134678 -3.595276 4.333194603576166e-39
1.042774 -1.145906 -3.667160 4.333194603576166e-39
1.051016 -1.143414 -3.696146 4.333194603576166e-39
1.060003 -1.141542 -3.727749 4.333194603576166e-39
1.072796 -1.143530 -3.772740 4.333194603576166e-39
1.079396 -1.138703 -3.795948 4.333194603576166e-39
1.096087 -1.144266 -3.854645 4.333194603576166e-39
1.106440 -1.142916 -3.891054 4.333194603576166e-39
1.120186 -1.144806 -3.939398 4.333194603576166e-39
1.129674 -1.142088 -3.972765 4.333194603576166e-39
1.139620 -1.139620 -4.007742 4.333194603576166e-39
1.154538 -1.141850 -4.060203 4.333194603576166e-39
1.166365 -1.140730 -4.101795 4.333194603576166e-39
1.181913 -1.142949 -4.156475 4.333194603576166e-39
1.191203 -1.138842 -4.189145 4.333194603576166e-39
1.208239 -1.141852 -4.249055 4.333194603576166e-39
1.222441 -1.141840 -4.299000 4.333194603576166e-39
1.233543 -1.138655 -4.338045 4.333194603576166e-39
1.249333 -1.139502 -4.393573 4.333194603576166e-39
1.260310 -1.135664 -4.432174 4.333194603576166e-39
1.281213 -1.140420 -4.505685 4.333194603576166e-39
1.293897 -1.137492 -4.550291 4.333194603576166e-39
1.318242 -1.144408 -4.635909 4.333194603576166e-39
1.331121 -1.140961 -4.681200 4.333194603576166e-39
1.351507 -1.143582 -4.752890 4.333194603576166e-39
1.373472 -1.147075 -4.830136 4.333194603576166e-39
1.385904 -1.142228 -4.873856 4.333194603576166e-39
1.384351 -1.125736 -4.868396 1.880790849211783e-38
1.389803 -1.114897 -4.887568 1.880790849211783e-38
1.387034 -1.097433 -4.877829 1.880790849211783e-38
1.386780 -1.081993 -4.876936 1.880790849211783e-38
1.390393 -1.069533 -4.889642 1.880790849211783e-38
1.391890 -1.055389 -4.894908 1.880790849211783e-38
1.390873 -1.039334 -4.891331 1.880790849211783e-38
1.388526 -1.022322 -4.883079 1.880790849211783e-38
1.384984 -1.004494 -4.870622 1.880790849211783e-38
1.390321 -0.993086 -4.889389 1.880790849211783e-38
1.388142 -0.976275 -4.881726 1.880790849211783e-38
1.385126 -0.958933 -4.871120 1.880790849211783e-38
1.385236 -0.943787 -4.871508 1.880790849211783e-38
