# .PCD v.7 - Exported by BlenSor
VERSION .7
FIELDS x y z rgb
SIZE 4 4 4 4
TYPE F F F F
COUNT 1 1 1 1
WIDTH 946
HEIGHT 1
VIEWPOINT 0 0 0 1 0 0 0
POINTS 946
DATA ascii
1.357657 1.098329 -4.881812 1.880790849211783e-38
1.353774 1.110399 -4.867850 1.880790849211783e-38
1.350391 1.122797 -4.855685 1.880790849211783e-38
1.360374 1.146383 -4.891581 1.880790849211783e-38
1.353989 1.156215 -4.868621 1.880790849211783e-38
1.354548 1.171912 -4.870633 1.880790849211783e-38
1.357554 1.189767 -4.881442 1.880790849211783e-38
1.357262 1.204761 -4.880392 1.880790849211783e-38
1.352332 1.215579 -4.862664 1.880790849211783e-38
1.355698 1.233837 -4.874766 1.880790849211783e-38
1.359594 1.252660 -4.888778 1.880790849211783e-38
1.358837 1.267231 -4.886056 1.880790849211783e-38
1.349541 1.273724 -4.852628 1.880790849211783e-38
1.355737 1.294805 -4.874907 1.880790849211783e-38
1.357626 1.311863 -4.881700 1.880790849211783e-38
1.357037 1.326542 -4.879583 1.880790849211783e-38
1.352724 1.337525 -4.864072 1.880790849211783e-38
1.356290 1.356290 -4.876897 1.880790849211783e-38
1.356571 1.371814 -4.877907 1.880790849211783e-38
1.357425 1.387929 -4.880979 1.880790849211783e-38
1.357306 1.403058 -4.880548 1.880790849211783e-38
1.356086 1.417034 -4.876164 1.880790849211783e-38
1.357186 1.433432 -4.880117 1.880790849211783e-38
1.351908 1.443048 -4.861139 1.880790849211783e-38
1.353060 1.459480 -4.865280 1.880790849211783e-38
1.353960 1.475664 -4.868517 1.880790849211783e-38
1.355479 1.492549 -4.873978 1.880790849211783e-38
1.356300 1.508693 -4.876932 1.880790849211783e-38
1.360351 1.528484 -4.891498 1.880790849211783e-38
1.358622 1.541807 -4.885281 1.880790849211783e-38
1.353191 1.550849 -4.865755 1.880790849211783e-38
1.358706 1.572435 -4.885584 1.880790849211783e-38
1.355113 1.583503 -4.872664 1.880790849211783e-38
1.354707 1.598250 -4.871206 1.880790849211783e-38
1.357396 1.616675 -4.880875 1.880790849211783e-38
1.355088 1.629151 -4.872574 1.880790849211783e-38
1.356424 1.645997 -4.877377 1.880790849211783e-38
1.359845 1.665428 -4.889678 1.880790849211783e-38
1.359295 1.680027 -4.887700 1.880790849211783e-38
1.355847 1.691000 -4.875303 1.880790849211783e-38
1.358756 1.709895 -4.885763 1.880790849211783e-38
1.359518 1.726130 -4.888504 1.880790849211783e-38
1.358623 1.740259 -4.885286 1.880790849211783e-38
1.355201 1.751102 -4.872980 1.880790849211783e-38
1.353419 1.764006 -4.866572 1.880790849211783e-38
1.352568 1.778095 -4.863511 1.880790849211783e-38
1.355004 1.796523 -4.872273 1.880790849211783e-38
1.362011 1.821116 -4.897467 1.880790849211783e-38
1.357628 1.830510 -4.881708 1.880790849211783e-38
1.357304 1.845323 -4.880540 1.880790849211783e-38
1.356130 1.858965 -4.876322 1.880790849211783e-38
1.352261 1.868856 -4.862411 1.880790849211783e-38
1.354365 1.886980 -4.869973 1.880790849211783e-38
1.354118 1.901851 -4.869086 1.880790849211783e-38
1.355660 1.919249 -4.874631 1.880790849211783e-38
1.355177 1.933791 -4.872892 1.880790849211783e-38
0.799942 -1.137695 -2.844441 4.333194603576166e-39
0.814751 -1.149704 -2.897097 4.333194603576166e-39
0.814287 -1.140002 -2.895449 4.333194603576166e-39
0.823456 -1.143689 -2.928053 4.333194603576166e-39
0.825363 -1.137167 -2.934834 4.333194603576166e-39
0.835698 -1.142120 -2.971582 4.333194603576166e-39
0.839467 -1.137945 -2.984986 4.333194603576166e-39
0.847444 -1.139342 -3.013351 4.333194603576166e-39
0.855860 -1.141147 -3.043277 4.333194603576166e-39
0.864339 -1.142848 -3.073423 4.333194603576166e-39
0.870166 -1.140885 -3.094145 4.333194603576166e-39
0.878364 -1.141873 -3.123295 4.333194603576166e-39
0.880140 -1.134403 -3.129611 4.333194603576166e-39
0.893081 -1.141159 -3.175625 4.333194603576166e-39
0.899509 -1.139378 -3.198482 4.333194603576166e-39
0.913879 -1.147426 -3.249579 4.333194603576166e-39
0.913303 -1.136555 -3.247532 4.333194603576166e-39
0.924872 -1.140676 -3.288669 4.333194603576166e-39
0.937397 -1.145708 -3.333206 4.333194603576166e-39
0.938215 -1.136283 -3.336114 4.333194603576166e-39
0.956844 -1.148213 -3.402355 4.333194603576166e-39
0.962081 -1.143807 -3.420976 4.333194603576166e-39
0.968165 -1.140283 -3.442611 4.333194603576166e-39
0.976694 -1.139477 -3.472938 4.333194603576166e-39
0.987877 -1.141546 -3.512701 4.333194603576166e-39
0.995604 -1.139414 -3.540178 4.333194603576166e-39
1.009532 -1.144137 -3.589705 4.333194603576166e-39
1.015912 -1.140079 -3.612388 4.333194603576166e-39
1.029927 -1.144364 -3.662225 4.333194603576166e-39
1.035753 -1.139328 -3.682940 4.333194603576166e-39
1.047023 -1.140091 -3.723013 4.333194603576166e-39
1.060290 -1.142757 -3.770191 4.333194603576166e-39
1.070907 -1.142301 -3.807940 4.333194603576166e-39
1.085937 -1.146267 -3.861384 4.333194603576166e-39
1.094042 -1.142666 -3.890206 4.333194603576166e-39
1.102628 -1.139382 -3.920735 4.333194603576166e-39
1.118870 -1.143733 -3.978487 4.333194603576166e-39
1.130953 -1.143519 -4.021453 4.333194603576166e-39
1.138392 -1.138392 -4.047904 4.333194603576166e-39
1.158391 -1.145520 -4.119016 4.333194603576166e-39
1.164774 -1.138890 -4.141716 4.333194603576166e-39
1.182881 -1.143451 -4.206098 4.333194603576166e-39
1.188088 -1.135284 -4.224615 4.333194603576166e-39
1.209313 -1.142129 -4.300088 4.333194603576166e-39
1.220020 -1.138685 -4.338159 4.333194603576166e-39
1.234221 -1.138226 -4.388653 4.333194603576166e-39
1.254734 -1.143202 -4.461594 4.333194603576166e-39
1.265490 -1.138941 -4.499842 4.333194603576166e-39
1.287843 -1.144750 -4.579325 4.333194603576166e-39
1.303457 -1.144146 -4.634845 4.333194603576166e-39
1.320019 -1.144017 -4.693737 4.333194603576166e-39
1.340603 -1.146960 -4.766927 4.333194603576166e-39
1.352813 -1.142375 -4.810344 4.333194603576166e-39
1.372878 -1.144065 -4.881692 4.333194603576166e-39
1.366299 -1.123401 -4.858298 1.880790849211783e-38
1.372894 -1.113569 -4.881750 1.880790849211783e-38
1.370204 -1.096163 -4.872183 1.880790849211783e-38
1.371418 -1.081896 -4.876500 1.880790849211783e-38
1.375456 -1.069799 -4.890859 1.880790849211783e-38
1.371662 -1.051608 -4.877370 1.880790849211783e-38
1.371268 -1.036069 -4.875966 1.880790849211783e-38
1.371670 -1.021132 -4.877398 1.880790849211783e-38
1.372697 -1.006644 -4.881049 1.880790849211783e-38
1.370270 -0.989639 -4.872419 1.880790849211783e-38
1.370270 -0.974414 -4.872417 1.880790849211783e-38
1.373206 -0.961244 -4.882859 1.880790849211783e-38
1.374484 -0.946867 -4.887403 1.880790849211783e-38
1.374037 -0.931292 -4.885815 1.880790849211783e-38
1.369300 -0.912867 -4.868971 1.880790849211783e-38
1.376997 -0.902698 -4.896340 1.880790849211783e-38
1.375629 -0.886516 -4.891474 1.880790849211783e-38
1.367765 -0.866251 -4.863511 1.880790849211783e-38
1.369091 -0.851879 -4.868227 1.880790849211783e-38
1.372150 -0.838536 -4.879105 1.880790849211783e-38
1.369686 -0.821812 -4.870343 1.880790849211783e-38
1.371861 -0.807874 -4.878078 1.880790849211783e-38
1.373339 -0.793485 -4.883330 1.880790849211783e-38
1.374052 -0.778630 -4.885868 1.880790849211783e-38
1.368990 -0.760550 -4.867867 1.880790849211783e-38
1.375196 -0.748718 -4.889935 1.880790849211783e-38
1.368320 -0.729770 -4.865483 1.880790849211783e-38
1.370589 -0.715752 -4.873551 1.880790849211783e-38
1.374510 -0.702527 -4.887494 1.880790849211783e-38
1.368634 -0.684317 -4.866602 1.880790849211783e-38
1.372823 -0.671158 -4.881497 1.880790849211783e-38
1.368894 -0.654027 -4.867525 1.880790849211783e-38
1.368784 -0.638766 -4.867135 1.880790849211783e-38
1.370827 -0.624488 -4.874402 1.880790849211783e-38
1.369952 -0.608868 -4.871288 1.880790849211783e-38
1.370713 -0.593976 -4.873995 1.880790849211783e-38
1.374638 -0.580403 -4.887951 1.880790849211783e-38
1.371243 -0.563733 -4.875880 1.880790849211783e-38
1.373594 -0.549438 -4.884240 1.880790849211783e-38
1.367390 -0.531763 -4.862179 1.880790849211783e-38
1.370554 -0.517765 -4.873430 1.880790849211783e-38
1.367622 -0.501461 -4.863001 1.880790849211783e-38
1.372291 -0.487926 -4.879606 1.880790849211783e-38
1.371446 -0.472387 -4.876599 1.880790849211783e-38
1.378066 -0.459355 -4.900139 1.880790849211783e-38
1.367988 -0.440796 -4.864305 1.880790849211783e-38
1.374897 -0.427746 -4.888871 1.880790849211783e-38
1.373328 -0.411998 -4.883292 1.880790849211783e-38
1.370916 -0.396043 -4.874717 1.880790849211783e-38
1.372952 -0.381375 -4.881954 1.880790849211783e-38
1.372275 -0.365940 -4.879548 1.880790849211783e-38
1.371548 -0.350507 -4.876965 1.880790849211783e-38
1.371921 -0.335358 -4.878290 1.880790849211783e-38
1.368940 -0.319419 -4.867691 1.880790849211783e-38
1.370714 -0.304603 -4.873997 1.880790849211783e-38
1.373998 -0.290066 -4.885676 1.880790849211783e-38
1.375091 -0.275018 -4.889563 1.880790849211783e-38
1.371496 -0.259060 -4.876779 1.880790849211783e-38
1.373600 -0.244196 -4.884258 1.880790849211783e-38
1.367669 -0.227945 -4.863171 1.880790849211783e-38
1.374326 -0.213784 -4.886840 1.880790849211783e-38
1.370722 -0.197993 -4.874025 1.880790849211783e-38
1.371603 -0.182880 -4.877159 1.880790849211783e-38
1.370830 -0.167546 -4.874411 1.880790849211783e-38
1.368461 -0.152051 -4.865985 1.880790849211783e-38
1.369670 -0.136967 -4.870286 1.880790849211783e-38
1.368624 -0.121655 -4.866567 1.880790849211783e-38
1.369117 -0.106487 -4.868318 1.880790849211783e-38
1.373404 -0.091560 -4.883563 1.880790849211783e-38
1.372182 -0.076232 -4.879219 1.880790849211783e-38
1.378079 -0.061248 -4.900187 1.880790849211783e-38
1.369662 -0.045655 -4.870255 1.880790849211783e-38
1.372078 -0.030491 -4.878849 1.880790849211783e-38
1.370057 -0.015223 -4.871660 1.880790849211783e-38
1.373060 0.000000 -4.882339 1.880790849211783e-38
1.372079 0.015245 -4.878852 1.880790849211783e-38
1.376918 0.030598 -4.896058 1.880790849211783e-38
1.373751 0.045792 -4.884796 1.880790849211783e-38
1.366601 0.060738 -4.859373 1.880790849211783e-38
1.373005 0.076278 -4.882144 1.880790849211783e-38
1.373604 0.091574 -4.884275 1.880790849211783e-38
1.373343 0.106816 -4.883344 1.880790849211783e-38
1.368311 0.121628 -4.865454 1.880790849211783e-38
1.368612 0.136861 -4.866522 1.880790849211783e-38
1.367038 0.151893 -4.860925 1.880790849211783e-38
1.372214 0.167715 -4.879331 1.880790849211783e-38
1.370237 0.182698 -4.872301 1.880790849211783e-38
1.372495 0.198249 -4.880331 1.880790849211783e-38
1.371351 0.213321 -4.876261 1.880790849211783e-38
1.375439 0.229240 -4.890798 1.880790849211783e-38
1.369452 0.243458 -4.869511 1.880790849211783e-38
1.370659 0.258902 -4.873801 1.880790849211783e-38
1.370187 0.274037 -4.872124 1.880790849211783e-38
1.373180 0.289894 -4.882766 1.880790849211783e-38
1.370157 0.304479 -4.872018 1.880790849211783e-38
1.368635 0.319348 -4.866606 1.880790849211783e-38
1.370716 0.335064 -4.874005 1.880790849211783e-38
1.365746 0.349024 -4.856332 1.880790849211783e-38
1.369811 0.365283 -4.870788 1.880790849211783e-38
1.371431 0.380953 -4.876545 1.880790849211783e-38
1.372494 0.396498 -4.880328 1.880790849211783e-38
1.372878 0.411863 -4.881693 1.880790849211783e-38
1.372918 0.427130 -4.881832 1.880790849211783e-38
1.376597 0.443570 -4.894917 1.880790849211783e-38
1.371210 0.457070 -4.875763 1.880790849211783e-38
1.373016 0.472928 -4.882184 1.880790849211783e-38
1.371028 0.487477 -4.875115 1.880790849211783e-38
1.369654 0.502206 -4.870228 1.880790849211783e-38
1.375350 0.519577 -4.890481 1.880790849211783e-38
1.374810 0.534648 -4.888562 1.880790849211783e-38
1.368476 0.547391 -4.866041 1.880790849211783e-38
1.375161 0.565344 -4.889809 1.880790849211783e-38
1.371141 0.578926 -4.875517 1.880790849211783e-38
1.372213 0.594626 -4.879329 1.880790849211783e-38
1.374263 0.610784 -4.886617 1.880790849211783e-38
1.372318 0.625167 -4.879701 1.880790849211783e-38
1.373536 0.640983 -4.884031 1.880790849211783e-38
1.366947 0.653097 -4.860604 1.880790849211783e-38
1.374588 0.672021 -4.887771 1.880790849211783e-38
1.369657 0.684829 -4.870240 1.880790849211783e-38
1.370619 0.700539 -4.873661 1.880790849211783e-38
1.373808 0.717433 -4.885000 1.880790849211783e-38
1.375557 0.733630 -4.891218 1.880790849211783e-38
1.369764 0.745760 -4.870620 1.880790849211783e-38
1.373154 0.762863 -4.882674 1.880790849211783e-38
1.370736 0.776750 -4.874074 1.880790849211783e-38
1.369236 0.791114 -4.868743 1.880790849211783e-38
1.368483 0.805884 -4.866064 1.880790849211783e-38
1.372516 0.823510 -4.880405 1.880790849211783e-38
1.369661 0.837015 -4.870252 1.880790849211783e-38
1.371916 0.853637 -4.878271 1.880790849211783e-38
1.370366 0.867898 -4.872759 1.880790849211783e-38
1.371993 0.884174 -4.878547 1.880790849211783e-38
1.369210 0.897594 -4.868652 1.880790849211783e-38
1.373467 0.915645 -4.883787 1.880790849211783e-38
1.372958 0.930560 -4.881976 1.880790849211783e-38
1.372886 0.945766 -4.881723 1.880790849211783e-38
1.370219 0.959153 -4.872237 1.880790849211783e-38
1.372072 0.975695 -4.878826 1.880790849211783e-38
1.371198 0.990310 -4.875719 1.880790849211783e-38
1.373191 1.007007 -4.882807 1.880790849211783e-38
1.377244 1.025282 -4.897219 1.880790849211783e-38
1.374028 1.038155 -4.885783 1.880790849211783e-38
1.376972 1.055679 -4.896250 1.880790849211783e-38
1.376906 1.070927 -4.896015 1.880790849211783e-38
1.373896 1.083851 -4.885313 1.880790849211783e-38
1.369491 1.095593 -4.869651 1.880790849211783e-38
1.374222 1.114647 -4.886471 1.880790849211783e-38
1.371968 1.128062 -4.878455 1.880790849211783e-38
1.371790 1.143159 -4.877824 1.880790849211783e-38
1.377837 1.163506 -4.899324 1.880790849211783e-38
1.372439 1.174198 -4.880130 1.880790849211783e-38
1.373340 1.190228 -4.883335 1.880790849211783e-38
1.373841 1.205927 -4.885117 1.880790849211783e-38
1.368087 1.216077 -4.864655 1.880790849211783e-38
1.371217 1.234095 -4.875785 1.880790849211783e-38
1.370936 1.249075 -4.874787 1.880790849211783e-38
1.374290 1.267401 -4.886714 1.880790849211783e-38
1.369015 1.277748 -4.867957 1.880790849211783e-38
1.367006 1.291061 -4.860812 1.880790849211783e-38
1.370285 1.309384 -4.872472 1.880790849211783e-38
1.374296 1.328486 -4.886734 1.880790849211783e-38
1.366518 1.336151 -4.859079 1.880790849211783e-38
1.373516 1.358255 -4.883961 1.880790849211783e-38
1.372611 1.372611 -4.880744 1.880790849211783e-38
1.368243 1.383446 -4.865212 1.880790849211783e-38
1.371034 1.401501 -4.875135 1.880790849211783e-38
1.373105 1.418875 -4.882500 1.880790849211783e-38
1.367431 1.428206 -4.862326 1.880790849211783e-38
1.368576 1.444608 -4.866397 1.880790849211783e-38
1.370424 1.461786 -4.872966 1.880790849211783e-38
1.369862 1.476406 -4.870967 1.880790849211783e-38
1.372714 1.494733 -4.881110 1.880790849211783e-38
1.368958 1.505854 -4.867754 1.880790849211783e-38
1.373279 1.525866 -4.883120 1.880790849211783e-38
1.371995 1.539683 -4.878551 1.880790849211783e-38
1.371172 1.553995 -4.875626 1.880790849211783e-38
1.374686 1.573251 -4.888120 1.880790849211783e-38
1.372033 1.585460 -4.878687 1.880790849211783e-38
1.371844 1.600485 -4.878017 1.880790849211783e-38
1.368708 1.612034 -4.866865 1.880790849211783e-38
1.370230 1.629051 -4.872277 1.880790849211783e-38
1.371385 1.645661 -4.876382 1.880790849211783e-38
1.375614 1.666021 -4.891420 1.880790849211783e-38
1.373660 1.678918 -4.884473 1.880790849211783e-38
1.374068 1.694684 -4.885923 1.880790849211783e-38
1.374385 1.710346 -4.887050 1.880790849211783e-38
1.369796 1.719855 -4.870733 1.880790849211783e-38
1.368090 1.732914 -4.864667 1.880790849211783e-38
1.373422 1.754928 -4.883626 1.880790849211783e-38
1.375741 1.773177 -4.891873 1.880790849211783e-38
1.371707 1.783219 -4.877528 1.880790849211783e-38
1.370074 1.796319 -4.871721 1.880790849211783e-38
1.369200 1.810386 -4.868612 1.880790849211783e-38
1.372172 1.829563 -4.879184 1.880790849211783e-38
1.372339 1.845034 -4.879777 1.880790849211783e-38
1.369308 1.856173 -4.868996 1.880790849211783e-38
1.373007 1.876444 -4.882153 1.880790849211783e-38
1.375274 1.894822 -4.890213 1.880790849211783e-38
1.370728 1.903789 -4.874047 1.880790849211783e-38
1.369029 1.916640 -4.868005 1.880790849211783e-38
1.374960 1.940221 -4.889096 1.880790849211783e-38
0.811780 -1.141845 -2.854815 4.333194603576166e-39
0.818715 -1.142603 -2.879204 4.333194603576166e-39
0.827955 -1.146399 -2.911697 4.333194603576166e-39
0.833684 -1.145170 -2.931845 4.333194603576166e-39
0.838811 -1.142995 -2.949874 4.333194603576166e-39
0.846318 -1.143924 -2.976275 4.333194603576166e-39
0.855747 -1.147265 -3.009435 4.333194603576166e-39
0.859350 -1.142653 -3.022107 4.333194603576166e-39
0.866074 -1.142075 -3.045751 4.333194603576166e-39
0.875478 -1.144856 -3.078824 4.333194603576166e-39
0.882348 -1.144144 -3.102985 4.333194603576166e-39
0.886958 -1.140375 -3.119196 4.333194603576166e-39
0.898324 -1.145116 -3.159167 4.333194603576166e-39
0.907575 -1.146935 -3.191700 4.333194603576166e-39
0.912367 -1.142966 -3.208554 4.333194603576166e-39
0.920614 -1.143180 -3.237556 4.333194603576166e-39
0.923238 -1.136293 -3.246783 4.333194603576166e-39
0.937132 -1.143095 -3.295645 4.333194603576166e-39
0.943205 -1.140138 -3.317002 4.333194603576166e-39
0.956471 -1.145663 -3.363653 4.333194603576166e-39
0.960617 -1.140074 -3.378237 4.333194603576166e-39
0.964872 -1.134519 -3.393198 4.333194603576166e-39
0.978670 -1.139989 -3.441722 4.333194603576166e-39
0.988461 -1.140532 -3.476156 4.333194603576166e-39
1.000563 -1.143500 -3.518713 4.333194603576166e-39
1.011924 -1.145365 -3.558668 4.333194603576166e-39
1.016991 -1.139924 -3.576486 4.333194603576166e-39
1.024898 -1.137524 -3.604292 4.333194603576166e-39
1.037437 -1.140041 -3.648392 4.333194603576166e-39
1.050996 -1.143391 -3.696073 4.333194603576166e-39
1.054509 -1.135625 -3.708429 4.333194603576166e-39
1.072085 -1.142772 -3.770239 4.333194603576166e-39
1.087191 -1.146927 -3.823362 4.333194603576166e-39
1.090650 -1.138591 -3.835528 4.333194603576166e-39
1.104442 -1.140852 -3.884030 4.333194603576166e-39
1.120135 -1.144754 -3.939219 4.333194603576166e-39
1.133260 -1.145713 -3.985373 4.333194603576166e-39
1.138898 -1.138898 -4.005200 4.333194603576166e-39
1.152081 -1.139421 -4.051564 4.333194603576166e-39
1.168336 -1.142658 -4.108728 4.333194603576166e-39
1.180923 -1.141992 -4.152994 4.333194603576166e-39
1.191825 -1.139437 -4.191332 4.333194603576166e-39
1.205363 -1.139135 -4.238942 4.333194603576166e-39
1.218735 -1.138379 -4.285966 4.333194603576166e-39
1.239774 -1.144407 -4.359957 4.333194603576166e-39
1.251355 -1.141346 -4.400684 4.333194603576166e-39
1.260660 -1.135979 -4.433407 4.333194603576166e-39
1.280995 -1.140227 -4.504920 4.333194603576166e-39
1.302542 -1.145092 -4.580695 4.333194603576166e-39
1.318396 -1.144542 -4.636449 4.333194603576166e-39
1.330095 -1.140082 -4.677591 4.333194603576166e-39
1.351539 -1.143610 -4.753002 4.333194603576166e-39
1.364678 -1.139731 -4.799210 4.333194603576166e-39
1.390368 -1.145908 -4.889557 4.333194603576166e-39
1.388431 -1.129054 -4.882742 1.880790849211783e-38
1.387517 -1.113063 -4.879530 1.880790849211783e-38
1.386321 -1.096870 -4.875324 1.880790849211783e-38
1.388716 -1.083504 -4.883746 1.880790849211783e-38
1.385598 -1.065845 -4.872781 1.880790849211783e-38
1.381601 -1.047587 -4.858723 1.880790849211783e-38
1.387678 -1.036946 -4.880095 1.880790849211783e-38
1.387673 -1.021694 -4.880079 1.880790849211783e-38
1.388132 -1.006777 -4.881690 1.880790849211783e-38
1.382354 -0.987396 -4.861373 1.880790849211783e-38
1.392793 -0.979546 -4.898082 1.880790849211783e-38
1.385214 -0.958994 -4.871429 1.880790849211783e-38
1.389421 -0.946639 -4.886225 1.880790849211783e-38
1.388856 -0.930991 -4.884237 1.880790849211783e-38
1.387695 -0.914964 -4.880154 1.880790849211783e-38
1.384836 -0.897861 -4.870100 1.880790849211783e-38
1.386515 -0.883713 -4.876007 1.880790849211783e-38
1.388454 -0.869691 -4.882825 1.880790849211783e-38
1.383877 -0.851617 -4.866729 1.880790849211783e-38
1.385350 -0.837299 -4.871908 1.880790849211783e-38
1.387805 -0.823533 -4.880541 1.880790849211783e-38
1.388035 -0.808416 -4.881351 1.880790849211783e-38
1.384892 -0.791367 -4.870298 1.880790849211783e-38
1.388814 -0.778346 -4.884090 1.880790849211783e-38
1.385582 -0.761309 -4.872725 1.880790849211783e-38
1.380945 -0.743586 -4.856418 1.880790849211783e-38
1.384947 -0.730521 -4.870490 1.880790849211783e-38
1.384839 -0.715247 -4.870111 1.880790849211783e-38
1.385548 -0.700387 -4.872605 1.880790849211783e-38
1.386128 -0.685448 -4.874643 1.880790849211783e-38
1.382969 -0.668688 -4.863535 1.880790849211783e-38
1.385130 -0.654512 -4.871134 1.880790849211783e-38
1.388803 -0.640986 -4.884049 1.880790849211783e-38
1.392224 -0.627266 -4.896082 1.880790849211783e-38
1.382297 -0.607603 -4.861173 1.880790849211783e-38
1.387572 -0.594674 -4.879724 1.880790849211783e-38
1.387117 -0.579236 -4.878121 1.880790849211783e-38
1.389349 -0.564900 -4.885972 1.880790849211783e-38
1.381047 -0.546348 -4.856776 1.880790849211783e-38
1.387616 -0.533698 -4.879876 1.880790849211783e-38
1.387380 -0.518362 -4.879045 1.880790849211783e-38
1.383814 -0.501823 -4.866506 1.880790849211783e-38
1.386656 -0.487615 -4.876503 1.880790849211783e-38
1.384400 -0.471609 -4.868568 1.880790849211783e-38
1.384559 -0.456448 -4.869127 1.880790849211783e-38
1.388456 -0.442475 -4.882830 1.880790849211783e-38
1.384396 -0.425968 -4.868553 1.880790849211783e-38
1.388018 -0.411829 -4.881289 1.880790849211783e-38
1.386584 -0.396167 -4.876248 1.880790849211783e-38
1.382926 -0.379925 -4.863384 1.880790849211783e-38
1.381833 -0.364439 -4.859540 1.880790849211783e-38
1.387198 -0.350611 -4.878408 1.880790849211783e-38
1.389614 -0.335951 -4.886904 1.880790849211783e-38
1.382856 -0.319121 -4.863136 1.880790849211783e-38
1.391494 -0.305823 -4.893512 1.880790849211783e-38
1.385793 -0.289341 -4.873464 1.880790849211783e-38
1.394629 -0.275861 -4.904540 1.880790849211783e-38
1.384585 -0.258659 -4.869219 1.880790849211783e-38
1.390702 -0.244519 -4.890729 1.880790849211783e-38
1.386995 -0.228626 -4.877694 1.880790849211783e-38
1.381119 -0.212480 -4.857029 1.880790849211783e-38
1.388951 -0.198422 -4.884573 1.880790849211783e-38
1.385847 -0.182749 -4.873655 1.880790849211783e-38
1.387156 -0.167678 -4.878258 1.880790849211783e-38
1.387696 -0.152494 -4.880157 1.880790849211783e-38
1.382211 -0.136702 -4.860869 1.880790849211783e-38
1.384418 -0.121707 -4.868629 1.880790849211783e-38
1.385333 -0.106564 -4.871847 1.880790849211783e-38
1.388137 -0.091526 -4.881710 1.880790849211783e-38
1.389629 -0.076353 -4.886956 1.880790849211783e-38
1.389486 -0.061076 -4.886452 1.880790849211783e-38
1.384611 -0.045647 -4.869309 1.880790849211783e-38
1.389205 -0.030532 -4.885464 1.880790849211783e-38
1.386708 -0.015239 -4.876685 1.880790849211783e-38
1.385134 0.000000 -4.871148 1.880790849211783e-38
1.390818 0.015284 -4.891139 1.880790849211783e-38
1.392790 0.030611 -4.898073 1.880790849211783e-38
1.383458 0.045609 -4.865255 1.880790849211783e-38
1.385054 0.060882 -4.870868 1.880790849211783e-38
1.386867 0.076201 -4.877244 1.880790849211783e-38
1.388761 0.091567 -4.883904 1.880790849211783e-38
1.385536 0.106580 -4.872562 1.880790849211783e-38
1.385835 0.121832 -4.873612 1.880790849211783e-38
1.385130 0.136991 -4.871134 1.880790849211783e-38
1.390209 0.152770 -4.888996 1.880790849211783e-38
1.390754 0.168113 -4.890913 1.880790849211783e-38
1.387870 0.183016 -4.880770 1.880790849211783e-38
1.389429 0.198490 -4.886254 1.880790849211783e-38
1.385582 0.213166 -4.872723 1.880790849211783e-38
1.383765 0.228093 -4.866334 1.880790849211783e-38
1.383828 0.243310 -4.866557 1.880790849211783e-38
1.382611 0.258290 -4.862276 1.880790849211783e-38
1.389201 0.274787 -4.885450 1.880790849211783e-38
1.390391 0.290301 -4.889635 1.880790849211783e-38
1.387305 0.304902 -4.878782 1.880790849211783e-38
1.385675 0.319771 -4.873050 1.880790849211783e-38
1.388929 0.335785 -4.884496 1.880790849211783e-38
1.390818 0.351525 -4.891139 1.880790849211783e-38
1.388551 0.366211 -4.883165 1.880790849211783e-38
1.387792 0.381262 -4.880496 1.880790849211783e-38
1.386318 0.396091 -4.875312 1.880790849211783e-38
1.386268 0.411310 -4.875137 1.880790849211783e-38
1.386949 0.426753 -4.877531 1.880790849211783e-38
1.386192 0.441754 -4.874871 1.880790849211783e-38
1.381946 0.455587 -4.859938 1.880790849211783e-38
1.383327 0.471243 -4.864794 1.880790849211783e-38
1.389921 0.488763 -4.887984 1.880790849211783e-38
1.386226 0.502697 -4.874990 1.880790849211783e-38
1.389488 0.519149 -4.886458 1.880790849211783e-38
1.385779 0.532992 -4.873416 1.880790849211783e-38
1.392133 0.550734 -4.895761 1.880790849211783e-38
1.390020 0.565173 -4.888331 1.880790849211783e-38
1.387654 0.579460 -4.880010 1.880790849211783e-38
1.383291 0.592839 -4.864668 1.880790849211783e-38
1.385246 0.608899 -4.871542 1.880790849211783e-38
1.388057 0.625388 -4.881428 1.880790849211783e-38
1.389818 0.641454 -4.887619 1.880790849211783e-38
1.387928 0.655834 -4.880973 1.880790849211783e-38
1.385656 0.669987 -4.872983 1.880790849211783e-38
1.383898 0.684345 -4.866804 1.880790849211783e-38
1.389667 0.702469 -4.887089 1.880790849211783e-38
1.390149 0.717989 -4.888784 1.880790849211783e-38
1.389412 0.732877 -4.886193 1.880790849211783e-38
1.386617 0.746640 -4.876364 1.880790849211783e-38
1.387121 0.762154 -4.878136 1.880790849211783e-38
1.386265 0.776918 -4.875127 1.880790849211783e-38
1.390879 0.794788 -4.891352 1.880790849211783e-38
1.384787 0.806524 -4.869928 1.880790849211783e-38
1.385919 0.822414 -4.873909 1.880790849211783e-38
1.387806 0.838784 -4.880546 1.880790849211783e-38
1.385906 0.852866 -4.873865 1.880790849211783e-38
1.388836 0.869930 -4.884167 1.880790849211783e-38
1.384293 0.882297 -4.868191 1.880790849211783e-38
1.384959 0.897940 -4.870533 1.880790849211783e-38
1.388556 0.915531 -4.883182 1.880790849211783e-38
1.384786 0.928263 -4.869924 1.880790849211783e-38
1.383472 0.942586 -4.865305 1.880790849211783e-38
1.384945 0.958808 -4.870485 1.880790849211783e-38
1.388279 0.976372 -4.882208 1.880790849211783e-38
1.385882 0.989916 -4.873779 1.880790849211783e-38
1.389262 1.007597 -4.885666 1.880790849211783e-38
1.391603 1.024587 -4.893897 1.880790849211783e-38
1.393570 1.041349 -4.900816 1.880790849211783e-38
1.383955 1.049372 -4.867000 1.880790849211783e-38
1.380111 1.061624 -4.853484 1.880790849211783e-38
1.386685 1.081919 -4.876604 1.880790849211783e-38
1.383355 1.094523 -4.864893 1.880790849211783e-38
1.389752 1.114856 -4.887389 1.880790849211783e-38
1.387690 1.128451 -4.880138 1.880790849211783e-38
1.385594 1.141973 -4.872765 1.880790849211783e-38
1.380911 1.153288 -4.856296 1.880790849211783e-38
1.386371 1.173083 -4.875500 1.880790849211783e-38
1.386607 1.188521 -4.876330 1.880790849211783e-38
1.386465 1.203635 -4.875831 1.880790849211783e-38
1.386309 1.218733 -4.875280 1.880790849211783e-38
1.387269 1.234822 -4.878656 1.880790849211783e-38
1.385308 1.248299 -4.871759 1.880790849211783e-38
1.387539 1.265558 -4.879608 1.880790849211783e-38
1.387432 1.280707 -4.879230 1.880790849211783e-38
1.386526 1.295107 -4.876044 1.880790849211783e-38
1.386763 1.310568 -4.876878 1.880790849211783e-38
1.386152 1.325222 -4.874729 1.880790849211783e-38
1.386996 1.341271 -4.877697 1.880790849211783e-38
1.389852 1.359306 -4.887742 1.880790849211783e-38
1.384044 1.368835 -4.867316 1.880790849211783e-38
1.386852 1.386852 -4.877190 1.880790849211783e-38
1.382171 1.397359 -4.860728 1.880790849211783e-38
1.390304 1.420860 -4.889330 1.880790849211783e-38
1.385261 1.430928 -4.871593 1.880790849211783e-38
1.387253 1.448231 -4.878600 1.880790849211783e-38
1.386790 1.462987 -4.876972 1.880790849211783e-38
1.386421 1.477834 -4.875675 1.880790849211783e-38
1.387522 1.494255 -4.879548 1.880790849211783e-38
1.386629 1.508530 -4.876406 1.880790849211783e-38
1.385418 1.522438 -4.872148 1.880790849211783e-38
1.392129 1.545110 -4.895748 1.880790849211783e-38
1.385435 1.552905 -4.872208 1.880790849211783e-38
1.384203 1.566735 -4.867873 1.880790849211783e-38
1.388942 1.587363 -4.884541 1.880790849211783e-38
1.385205 1.598313 -4.871397 1.880790849211783e-38
1.385694 1.614105 -4.873118 1.880790849211783e-38
1.388482 1.632611 -4.882923 1.880790849211783e-38
1.386081 1.645019 -4.874478 1.880790849211783e-38
1.381019 1.654187 -4.856677 1.880790849211783e-38
1.385798 1.675140 -4.873483 1.880790849211783e-38
1.384059 1.688248 -4.867368 1.880790849211783e-38
1.389838 1.710569 -4.887690 1.880790849211783e-38
1.387248 1.722627 -4.878584 1.880790849211783e-38
1.387855 1.738632 -4.880719 1.880790849211783e-38
1.389017 1.755351 -4.884802 1.880790849211783e-38
1.384172 1.764439 -4.867766 1.880790849211783e-38
1.384872 1.780549 -4.870226 1.880790849211783e-38
1.388994 1.801113 -4.884724 1.880790849211783e-38
1.381284 1.806294 -4.857608 1.880790849211783e-38
1.385908 1.827571 -4.873869 1.880790849211783e-38
1.385136 1.841775 -4.871157 1.880790849211783e-38
1.389348 1.862643 -4.885969 1.880790849211783e-38
1.388758 1.877112 -4.883893 1.880790849211783e-38
1.387522 1.890690 -4.879547 1.880790849211783e-38
1.387580 1.906016 -4.879750 1.880790849211783e-38
1.386518 1.919794 -4.876016 1.880790849211783e-38
1.387253 1.936056 -4.878599 1.880790849211783e-38
0.814451 -1.133149 -2.833074 4.333194603576166e-39
0.828162 -1.143224 -2.880769 4.333194603576166e-39
0.833897 -1.142076 -2.900717 4.333194603576166e-39
0.845828 -1.149222 -2.942219 4.333194603576166e-39
0.848582 -1.143740 -2.951798 4.333194603576166e-39
0.855440 -1.143686 -2.975656 4.333194603576166e-39
0.855443 -1.134391 -2.975665 4.333194603576166e-39
0.866771 -1.139992 -3.015069 4.333194603576166e-39
0.876764 -1.143605 -3.049830 4.333194603576166e-39
0.878640 -1.136501 -3.056356 4.333194603576166e-39
0.890017 -1.141543 -3.095932 4.333194603576166e-39
0.897801 -1.141769 -3.123009 4.333194603576166e-39
0.904290 -1.140192 -3.145582 4.333194603576166e-39
0.912929 -1.141161 -3.175632 4.333194603576166e-39
0.923866 -1.144790 -3.213675 4.333194603576166e-39
0.929640 -1.141841 -3.233762 4.333194603576166e-39
0.939180 -1.143350 -3.266946 4.333194603576166e-39
0.944853 -1.139985 -3.286679 4.333194603576166e-39
0.957371 -1.144683 -3.330223 4.333194603576166e-39
0.964790 -1.143067 -3.356031 4.333194603576166e-39
0.969818 -1.138482 -3.373520 4.333194603576166e-39
0.979791 -1.139540 -3.408212 4.333194603576166e-39
0.993010 -1.144121 -3.454196 4.333194603576166e-39
1.000597 -1.141986 -3.480587 4.333194603576166e-39
1.005179 -1.136290 -3.496526 4.333194603576166e-39
1.017081 -1.138689 -3.537926 4.333194603576166e-39
1.026768 -1.138373 -3.571622 4.333194603576166e-39
1.037448 -1.138938 -3.608773 4.333194603576166e-39
1.051656 -1.143104 -3.658194 4.333194603576166e-39
1.063890 -1.144838 -3.700750 4.333194603576166e-39
1.074626 -1.144711 -3.738097 4.333194603576166e-39
1.082899 -1.141752 -3.766873 4.333194603576166e-39
1.098265 -1.146015 -3.820323 4.333194603576166e-39
1.106802 -1.142894 -3.850021 4.333194603576166e-39
1.121091 -1.145462 -3.899723 4.333194603576166e-39
1.128863 -1.141134 -3.926762 4.333194603576166e-39
1.144071 -1.144071 -3.979660 4.333194603576166e-39
1.157001 -1.144425 -4.024640 4.333194603576166e-39
1.171835 -1.146360 -4.076238 4.333194603576166e-39
1.178602 -1.140170 -4.099779 4.333194603576166e-39
1.192887 -1.141022 -4.149468 4.333194603576166e-39
1.205620 -1.140097 -4.193759 4.333194603576166e-39
1.223607 -1.143807 -4.256328 4.333194603576166e-39
1.233090 -1.139268 -4.289314 4.333194603576166e-39
1.249136 -1.140515 -4.345129 4.333194603576166e-39
1.264632 -1.140918 -4.399035 4.333194603576166e-39
1.278699 -1.139710 -4.447966 4.333194603576166e-39
1.298086 -1.142880 -4.515403 4.333194603576166e-39
1.314306 -1.142874 -4.571824 4.333194603576166e-39
1.330423 -1.142429 -4.627889 4.333194603576166e-39
1.346020 -1.141191 -4.682142 4.333194603576166e-39
1.368357 -1.145255 -4.759843 4.333194603576166e-39
1.381886 -1.141558 -4.806902 4.333194603576166e-39
1.402371 -1.143237 -4.878160 4.333194603576166e-39
1.406394 -1.131230 -4.892153 1.880790849211783e-38
1.402459 -1.112821 -4.878466 1.880790849211783e-38
1.404739 -1.099361 -4.886398 1.880790849211783e-38
1.404839 -1.084169 -4.886744 1.880790849211783e-38
1.399677 -1.064971 -4.868788 1.880790849211783e-38
1.404454 -1.053340 -4.885405 1.880790849211783e-38
1.398224 -1.033470 -4.863737 1.880790849211783e-38
1.399804 -1.019423 -4.869232 1.880790849211783e-38
1.409105 -1.010880 -4.901585 1.880790849211783e-38
1.400998 -0.989835 -4.873383 1.880790849211783e-38
1.399169 -0.973335 -4.867022 1.880790849211783e-38
1.403182 -0.960874 -4.880980 1.880790849211783e-38
1.407934 -0.948825 -4.897511 1.880790849211783e-38
1.404994 -0.931572 -4.887283 1.880790849211783e-38
1.402704 -0.914807 -4.879318 1.880790849211783e-38
1.403464 -0.900048 -4.881962 1.880790849211783e-38
1.397493 -0.881028 -4.861191 1.880790849211783e-38
1.403277 -0.869422 -4.881312 1.880790849211783e-38
1.402251 -0.853544 -4.877744 1.880790849211783e-38
1.403074 -0.838794 -4.880606 1.880790849211783e-38
1.401564 -0.822657 -4.875352 1.880790849211783e-38
1.401699 -0.807501 -4.875823 1.880790849211783e-38
1.400223 -0.791430 -4.870687 1.880790849211783e-38
1.399185 -0.775635 -4.867079 1.880790849211783e-38
1.401107 -0.761471 -4.873763 1.880790849211783e-38
1.402767 -0.747126 -4.879539 1.880790849211783e-38
1.405482 -0.733295 -4.888982 1.880790849211783e-38
1.404750 -0.717644 -4.886436 1.880790849211783e-38
1.401397 -0.700698 -4.874771 1.880790849211783e-38
1.397265 -0.683445 -4.860399 1.880790849211783e-38
1.403414 -0.671198 -4.881787 1.880790849211783e-38
1.406527 -0.657399 -4.892618 1.880790849211783e-38
1.396328 -0.637454 -4.857140 1.880790849211783e-38
1.399142 -0.623531 -4.866930 1.880790849211783e-38
1.400819 -0.609052 -4.872760 1.880790849211783e-38
1.400245 -0.593582 -4.870763 1.880790849211783e-38
1.400509 -0.578471 -4.871684 1.880790849211783e-38
1.410503 -0.567267 -4.906446 1.880790849211783e-38
1.406955 -0.550548 -4.894105 1.880790849211783e-38
1.399886 -0.532565 -4.869516 1.880790849211783e-38
1.402113 -0.518172 -4.877264 1.880790849211783e-38
1.406485 -0.504500 -4.892470 1.880790849211783e-38
1.399636 -0.486830 -4.868647 1.880790849211783e-38
1.402829 -0.472692 -4.879753 1.880790849211783e-38
1.402923 -0.457475 -4.880082 1.880790849211783e-38
1.406225 -0.443267 -4.891567 1.880790849211783e-38
1.402795 -0.426938 -4.879636 1.880790849211783e-38
1.402360 -0.411562 -4.878124 1.880790849211783e-38
1.398493 -0.395226 -4.864670 1.880790849211783e-38
1.401458 -0.380831 -4.874985 1.880790849211783e-38
1.399714 -0.365143 -4.868919 1.880790849211783e-38
1.399681 -0.349920 -4.868803 1.880790849211783e-38
1.400075 -0.334801 -4.870173 1.880790849211783e-38
1.403971 -0.320472 -4.883724 1.880790849211783e-38
1.398317 -0.303982 -4.864057 1.880790849211783e-38
1.403758 -0.289907 -4.882985 1.880790849211783e-38
1.397958 -0.273514 -4.862811 1.880790849211783e-38
1.401939 -0.259054 -4.876657 1.880790849211783e-38
1.400342 -0.243538 -4.871101 1.880790849211783e-38
1.400754 -0.228384 -4.872535 1.880790849211783e-38
1.401162 -0.213220 -4.873955 1.880790849211783e-38
1.398373 -0.197596 -4.864254 1.880790849211783e-38
1.398928 -0.182469 -4.866185 1.880790849211783e-38
1.402595 -0.167702 -4.878940 1.880790849211783e-38
1.407546 -0.152994 -4.896161 1.880790849211783e-38
1.403188 -0.137268 -4.881002 1.880790849211783e-38
1.397803 -0.121548 -4.862269 1.880790849211783e-38
1.399941 -0.106517 -4.869708 1.880790849211783e-38
1.406177 -0.091707 -4.891399 1.880790849211783e-38
1.400957 -0.076139 -4.873241 1.880790849211783e-38
1.403483 -0.061021 -4.882028 1.880790849211783e-38
1.402754 -0.045742 -4.879492 1.880790849211783e-38
1.404938 -0.030542 -4.887091 1.880790849211783e-38
1.404611 -0.015268 -4.885952 1.880790849211783e-38
1.397938 0.000000 -4.862739 1.880790849211783e-38
1.401752 0.015236 -4.876007 1.880790849211783e-38
1.398650 0.030405 -4.865217 1.880790849211783e-38
1.406052 0.045850 -4.890966 1.880790849211783e-38
1.403554 0.061024 -4.882275 1.880790849211783e-38
1.405064 0.076362 -4.887529 1.880790849211783e-38
1.403042 0.091503 -4.880494 1.880790849211783e-38
1.403511 0.106789 -4.882127 1.880790849211783e-38
1.403201 0.122017 -4.881046 1.880790849211783e-38
1.395763 0.136542 -4.855174 1.880790849211783e-38
1.404007 0.152609 -4.883851 1.880790849211783e-38
1.399595 0.167343 -4.868503 1.880790849211783e-38
1.405847 0.183371 -4.890251 1.880790849211783e-38
1.403233 0.198283 -4.881160 1.880790849211783e-38
1.400492 0.213118 -4.871624 1.880790849211783e-38
1.402999 0.228750 -4.880345 1.880790849211783e-38
1.402022 0.243830 -4.876945 1.880790849211783e-38
1.400618 0.258810 -4.872061 1.880790849211783e-38
1.404620 0.274817 -4.885983 1.880790849211783e-38
1.397901 0.288697 -4.862611 1.880790849211783e-38
1.405393 0.305520 -4.888673 1.880790849211783e-38
1.398086 0.319128 -4.863256 1.880790849211783e-38
1.401792 0.335211 -4.876145 1.880790849211783e-38
1.403146 0.350787 -4.880857 1.880790849211783e-38
1.404657 0.366432 -4.886110 1.880790849211783e-38
1.403170 0.381296 -4.880940 1.880790849211783e-38
1.398513 0.395232 -4.864738 1.880790849211783e-38
1.400365 0.410977 -4.871182 1.880790849211783e-38
1.401473 0.426535 -4.875035 1.880790849211783e-38
1.403429 0.442385 -4.881841 1.880790849211783e-38
1.401036 0.456859 -4.873515 1.880790849211783e-38
1.397752 0.470982 -4.862094 1.880790849211783e-38
1.400482 0.487124 -4.871588 1.880790849211783e-38
1.404554 0.503807 -4.885754 1.880790849211783e-38
1.400861 0.517709 -4.872908 1.880790849211783e-38
1.403842 0.534070 -4.883276 1.880790849211783e-38
1.397602 0.546888 -4.861570 1.880790849211783e-38
1.402923 0.564219 -4.880079 1.880790849211783e-38
1.400569 0.578496 -4.871893 1.880790849211783e-38
1.400549 0.593711 -4.871822 1.880790849211783e-38
1.402064 0.609593 -4.877091 1.880790849211783e-38
1.403096 0.625293 -4.880682 1.880790849211783e-38
1.404508 0.641188 -4.885593 1.880790849211783e-38
1.397468 0.653164 -4.861105 1.880790849211783e-38
1.401438 0.670253 -4.874916 1.880790849211783e-38
1.401454 0.685494 -4.874971 1.880790849211783e-38
1.402663 0.701332 -4.879177 1.880790849211783e-38
1.405068 0.717806 -4.887540 1.880790849211783e-38
1.402876 0.731935 -4.879919 1.880790849211783e-38
1.397791 0.744475 -4.862227 1.880790849211783e-38
1.405484 0.763850 -4.888990 1.880790849211783e-38
1.406152 0.779497 -4.891313 1.880790849211783e-38
1.400165 0.791398 -4.870487 1.880790849211783e-38
1.396782 0.804668 -4.858718 1.880790849211783e-38
1.402221 0.823043 -4.877639 1.880790849211783e-38
1.402511 0.838458 -4.878646 1.880790849211783e-38
1.401404 0.853028 -4.874796 1.880790849211783e-38
1.402070 0.868674 -4.877112 1.880790849211783e-38
1.402972 0.884482 -4.880250 1.880790849211783e-38
1.405025 0.901049 -4.887393 1.880790849211783e-38
1.396873 0.911004 -4.859036 1.880790849211783e-38
1.405316 0.931785 -4.888403 1.880790849211783e-38
1.402005 0.944829 -4.876885 1.880790849211783e-38
1.404851 0.962018 -4.886788 1.880790849211783e-38
1.402156 0.975413 -4.877413 1.880790849211783e-38
1.402519 0.990910 -4.878674 1.880790849211783e-38
1.402971 1.006479 -4.880246 1.880790849211783e-38
1.399522 1.019217 -4.868248 1.880790849211783e-38
1.407610 1.040407 -4.896385 1.880790849211783e-38
1.398551 1.048913 -4.864871 1.880790849211783e-38
1.397128 1.063032 -4.859923 1.880790849211783e-38
1.397822 1.078754 -4.862338 1.880790849211783e-38
1.395381 1.092037 -4.853844 1.880790849211783e-38
1.398964 1.110047 -4.866309 1.880790849211783e-38
1.402385 1.128006 -4.878210 1.880790849211783e-38
1.402140 1.143049 -4.877358 1.880790849211783e-38
1.403841 1.159695 -4.883275 1.880790849211783e-38
1.401299 1.172827 -4.874433 1.880790849211783e-38
1.401291 1.188051 -4.874404 1.880790849211783e-38
1.399405 1.201663 -4.867842 1.880790849211783e-38
1.403125 1.220109 -4.880783 1.880790849211783e-38
1.399866 1.232491 -4.869446 1.880790849211783e-38
1.404689 1.252005 -4.886223 1.880790849211783e-38
1.403038 1.265784 -4.880480 1.880790849211783e-38
1.402977 1.280979 -4.880268 1.880790849211783e-38
1.401720 1.295067 -4.875895 1.880790849211783e-38
1.401077 1.309703 -4.873659 1.880790849211783e-38
1.406911 1.330448 -4.893952 1.880790849211783e-38
1.401860 1.340910 -4.876384 1.880790849211783e-38
1.403155 1.357400 -4.880886 1.880790849211783e-38
1.397809 1.367421 -4.862290 1.880790849211783e-38
1.405105 1.389832 -4.887670 1.880790849211783e-38
1.402091 1.402091 -4.877186 1.880790849211783e-38
1.401526 1.416760 -4.875219 1.880790849211783e-38
1.399260 1.429678 -4.867338 1.880790849211783e-38
1.398601 1.444208 -4.865047 1.880790849211783e-38
1.396916 1.457651 -4.859183 1.880790849211783e-38
1.402396 1.478614 -4.878249 1.880790849211783e-38
1.403758 1.495308 -4.882986 1.880790849211783e-38
1.398889 1.505326 -4.866048 1.880790849211783e-38
1.402581 1.524544 -4.878891 1.880790849211783e-38
1.396043 1.532613 -4.856149 1.880790849211783e-38
1.399448 1.551562 -4.867993 1.880790849211783e-38
1.404511 1.572442 -4.885605 1.880790849211783e-38
1.400482 1.583154 -4.871590 1.880790849211783e-38
1.399428 1.597173 -4.867922 1.880790849211783e-38
1.401173 1.614395 -4.873991 1.880790849211783e-38
1.396911 1.624668 -4.859167 1.880790849211783e-38
1.403849 1.647997 -4.883301 1.880790849211783e-38
1.402224 1.661330 -4.877647 1.880790849211783e-38
1.403018 1.677522 -4.880412 1.880790849211783e-38
1.403350 1.693172 -4.881565 1.880790849211783e-38
1.403747 1.708909 -4.882945 1.880790849211783e-38
1.401154 1.720983 -4.873927 1.880790849211783e-38
1.404836 1.740776 -4.886736 1.880790849211783e-38
1.399500 1.749375 -4.868172 1.880790849211783e-38
1.402047 1.767799 -4.877035 1.880790849211783e-38
1.402371 1.783451 -4.878161 1.880790849211783e-38
1.398665 1.793940 -4.865269 1.880790849211783e-38
1.406253 1.818958 -4.891665 1.880790849211783e-38
1.403125 1.830163 -4.880783 1.880790849211783e-38
1.404364 1.847044 -4.885094 1.880790849211783e-38
1.403239 1.860817 -4.881178 1.880790849211783e-38
1.401165 1.873297 -4.873967 1.880790849211783e-38
1.403144 1.891194 -4.880850 1.880790849211783e-38
1.399837 1.901953 -4.869346 1.880790849211783e-38
1.406520 1.926321 -4.892593 1.880790849211783e-38
1.399546 1.931982 -4.868334 1.880790849211783e-38
0.827678 -1.139170 -2.848128 4.333194603576166e-39
0.840337 -1.147557 -2.891689 4.333194603576166e-39
0.844598 -1.144294 -2.906350 4.333194603576166e-39
0.850338 -1.142928 -2.926104 4.333194603576166e-39
0.854434 -1.139245 -2.940196 4.333194603576166e-39
0.861669 -1.139627 -2.965093 4.333194603576166e-39
0.869045 -1.140037 -2.990475 4.333194603576166e-39
0.876584 -1.140502 -3.016419 4.333194603576166e-39
0.881184 -1.137011 -3.032247 4.333194603576166e-39
0.894169 -1.144152 -3.076931 4.333194603576166e-39
0.900781 -1.142926 -3.099682 4.333194603576166e-39
0.902711 -1.135668 -3.106323 4.333194603576166e-39
0.917333 -1.144201 -3.156641 4.333194603576166e-39
0.923053 -1.141410 -3.176323 4.333194603576166e-39
0.930180 -1.140220 -3.200846 4.333194603576166e-39
0.939260 -1.141251 -3.232092 4.333194603576166e-39
0.950788 -1.145035 -3.271761 4.333194603576166e-39
0.957713 -1.143077 -3.295592 4.333194603576166e-39
0.964259 -1.140521 -3.318117 4.333194603576166e-39
0.976026 -1.143945 -3.358609 4.333194603576166e-39
0.979793 -1.137824 -3.371570 4.333194603576166e-39
0.988731 -1.137572 -3.402327 4.333194603576166e-39
0.999776 -1.139530 -3.440336 4.333194603576166e-39
1.007151 -1.137106 -3.465714 4.333194603576166e-39
1.019009 -1.139537 -3.506518 4.333194603576166e-39
1.027519 -1.138005 -3.535803 4.333194603576166e-39
1.041996 -1.142834 -3.585619 4.333194603576166e-39
1.056009 -1.146848 -3.633838 4.333194603576166e-39
1.060117 -1.139911 -3.647976 4.333194603576166e-39
1.069638 -1.138646 -3.680736 4.333194603576166e-39
1.089551 -1.148130 -3.749262 4.333194603576166e-39
1.095958 -1.143095 -3.771305 4.333194603576166e-39
1.107140 -1.142854 -3.809786 4.333194603576166e-39
1.118210 -1.142258 -3.847880 4.333194603576166e-39
1.129694 -1.141842 -3.887398 4.333194603576166e-39
1.139489 -1.139489 -3.921103 4.333194603576166e-39
1.151231 -1.138852 -3.961508 4.333194603576166e-39
1.167418 -1.142313 -4.017210 4.333194603576166e-39
1.176018 -1.138082 -4.046803 4.333194603576166e-39
1.190870 -1.139650 -4.097909 4.333194603576166e-39
1.209011 -1.144011 -4.160336 4.333194603576166e-39
1.222442 -1.143575 -4.206553 4.333194603576166e-39
1.230349 -1.137743 -4.233763 4.333194603576166e-39
1.249764 -1.142258 -4.300571 4.333194603576166e-39
1.265085 -1.142657 -4.353291 4.333194603576166e-39
1.280041 -1.142403 -4.404758 4.333194603576166e-39
1.294244 -1.141162 -4.453631 4.333194603576166e-39
1.307335 -1.138646 -4.498676 4.333194603576166e-39
1.322548 -1.137675 -4.551026 4.333194603576166e-39
1.343583 -1.141323 -4.623411 4.333194603576166e-39
1.362564 -1.142796 -4.688727 4.333194603576166e-39
1.376085 -1.139339 -4.735254 4.333194603576166e-39
1.393689 -1.138929 -4.795831 4.333194603576166e-39
1.417433 -1.143091 -4.877538 4.333194603576166e-39
1.414636 -1.125625 -4.867913 1.880790849211783e-38
1.418999 -1.113838 -4.882926 1.880790849211783e-38
1.418991 -1.098574 -4.882898 1.880790849211783e-38
1.415299 -1.080497 -4.870194 1.880790849211783e-38
1.419364 -1.068339 -4.884183 1.880790849211783e-38
1.416103 -1.050657 -4.872959 1.880790849211783e-38
1.415274 -1.034824 -4.870106 1.880790849211783e-38
1.416982 -1.020836 -4.875984 1.880790849211783e-38
1.416024 -1.004920 -4.872688 1.880790849211783e-38
1.418661 -0.991538 -4.881764 1.880790849211783e-38
1.420642 -0.977647 -4.888581 1.880790849211783e-38
1.418960 -0.961231 -4.882792 1.880790849211783e-38
1.419563 -0.946375 -4.884867 1.880790849211783e-38
1.416652 -0.929202 -4.874849 1.880790849211783e-38
1.412804 -0.911486 -4.861607 1.880790849211783e-38
1.417466 -0.899253 -4.877650 1.880790849211783e-38
1.418169 -0.884449 -4.880068 1.880790849211783e-38
1.418454 -0.869375 -4.881049 1.880790849211783e-38
1.413158 -0.850934 -4.862828 1.880790849211783e-38
1.416884 -0.837942 -4.875647 1.880790849211783e-38
1.416603 -0.822544 -4.874681 1.880790849211783e-38
1.418441 -0.808359 -4.881005 1.880790849211783e-38
1.413575 -0.790386 -4.864260 1.880790849211783e-38
1.416074 -0.776556 -4.872859 1.880790849211783e-38
1.416080 -0.761333 -4.872882 1.880790849211783e-38
1.420004 -0.748174 -4.886385 1.880790849211783e-38
1.412446 -0.729005 -4.860378 1.880790849211783e-38
1.414129 -0.714668 -4.866168 1.880790849211783e-38
1.418858 -0.701801 -4.882439 1.880790849211783e-38
1.414872 -0.684615 -4.868723 1.880790849211783e-38
1.417843 -0.670808 -4.878949 1.880790849211783e-38
1.419558 -0.656355 -4.884849 1.880790849211783e-38
1.418836 -0.640765 -4.882366 1.880790849211783e-38
1.414541 -0.623615 -4.867586 1.880790849211783e-38
1.419089 -0.610361 -4.883236 1.880790849211783e-38
1.416778 -0.594133 -4.875283 1.880790849211783e-38
1.423289 -0.581559 -4.897689 1.880790849211783e-38
1.419361 -0.564692 -4.884171 1.880790849211783e-38
1.418638 -0.549150 -4.881684 1.880790849211783e-38
1.414312 -0.532268 -4.866799 1.880790849211783e-38
1.413247 -0.516671 -4.863134 1.880790849211783e-38
1.416865 -0.502758 -4.875581 1.880790849211783e-38
1.417388 -0.487703 -4.877382 1.880790849211783e-38
1.415919 -0.471973 -4.872328 1.880790849211783e-38
1.419669 -0.457958 -4.885230 1.880790849211783e-38
1.414088 -0.440952 -4.866025 1.880790849211783e-38
1.419906 -0.427498 -4.886045 1.880790849211783e-38
1.417955 -0.411664 -4.879333 1.880790849211783e-38
1.416046 -0.395884 -4.872764 1.880790849211783e-38
1.420538 -0.381865 -4.888222 1.880790849211783e-38
1.413783 -0.364847 -4.864978 1.880790849211783e-38
1.418059 -0.350703 -4.879693 1.880790849211783e-38
1.425272 -0.337161 -4.904513 1.880790849211783e-38
1.416587 -0.319875 -4.874626 1.880790849211783e-38
1.415350 -0.304376 -4.870368 1.880790849211783e-38
1.418850 -0.289873 -4.882414 1.880790849211783e-38
1.416825 -0.274224 -4.875446 1.880790849211783e-38
1.419807 -0.259535 -4.885707 1.880790849211783e-38
1.415350 -0.243501 -4.870369 1.880790849211783e-38
1.422215 -0.229389 -4.893991 1.880790849211783e-38
1.416365 -0.213216 -4.873861 1.880790849211783e-38
1.423546 -0.198990 -4.898572 1.880790849211783e-38
1.415359 -0.182627 -4.870401 1.880790849211783e-38
1.415561 -0.167432 -4.871096 1.880790849211783e-38
1.414205 -0.152065 -4.866430 1.880790849211783e-38
1.415932 -0.137026 -4.872372 1.880790849211783e-38
1.416135 -0.121818 -4.873070 1.880790849211783e-38
1.417717 -0.106710 -4.878515 1.880790849211783e-38
