# .PCD v.7 - Exported by BlenSor
VERSION .7
FIELDS x y z rgb
SIZE 4 4 4 4
TYPE F F F F
COUNT 1 1 1 1
WIDTH 946
HEIGHT 1
VIEWPOINT 0 0 0 1 0 0 0
POINTS 946
DATA ascii
0.132088 -1.137988 -3.251627 4.333194603576166e-39
0.133881 -1.143134 -3.295755 4.333194603576166e-39
0.135018 -1.142463 -3.323766 4.333194603576166e-39
0.136046 -1.140696 -3.349071 4.333194603576166e-39
0.137638 -1.143457 -3.388261 4.333194603576166e-39
0.138426 -1.139354 -3.407656 4.333194603576166e-39
0.139733 -1.139365 -3.439837 4.333194603576166e-39
0.141225 -1.140661 -3.476550 4.333194603576166e-39
0.142449 -1.139595 -3.506695 4.333194603576166e-39
0.143974 -1.140718 -3.544230 4.333194603576166e-39
0.146082 -1.146186 -3.596133 4.333194603576166e-39
0.146659 -1.139430 -3.610333 4.333194603576166e-39
0.148069 -1.138994 -3.645040 4.333194603576166e-39
0.149674 -1.139827 -3.684554 4.333194603576166e-39
0.151488 -1.141988 -3.729206 4.333194603576166e-39
0.153061 -1.142073 -3.767934 4.333194603576166e-39
0.154054 -1.137631 -3.792373 4.333194603576166e-39
0.156751 -1.145490 -3.858769 4.333194603576166e-39
0.157693 -1.140244 -3.881960 4.333194603576166e-39
0.159710 -1.142541 -3.931604 4.333194603576166e-39
0.160683 -1.137141 -3.955556 4.333194603576166e-39
0.163218 -1.142526 -4.017959 4.333194603576166e-39
0.165170 -1.143486 -4.066017 4.333194603576166e-39
0.166727 -1.141440 -4.104347 4.333194603576166e-39
0.169348 -1.146355 -4.168861 4.333194603576166e-39
0.171120 -1.145188 -4.212485 4.333194603576166e-39
0.172503 -1.141175 -4.246534 4.333194603576166e-39
0.132034 -0.863297 -3.250292 1.873467803567068e-38
0.131119 -0.847233 -3.227783 1.873467803567068e-38
0.131755 -0.841203 -3.243425 1.873467803567068e-38
0.131439 -0.829078 -3.235657 1.873467803567068e-38
0.130417 -0.812596 -3.210484 1.873467803567068e-38
0.130987 -0.806075 -3.224528 1.873467803567068e-38
0.130315 -0.791913 -3.207978 1.873467803567068e-38
0.131011 -0.786066 -3.225118 1.873467803567068e-38
0.129725 -0.768372 -3.193461 1.873467803567068e-38
0.130210 -0.761225 -3.205387 1.873467803567068e-38
0.129937 -0.749637 -3.198681 1.873467803567068e-38
0.129912 -0.739497 -3.198053 1.873467803567068e-38
0.129986 -0.729920 -3.199877 1.873467803567068e-38
0.129214 -0.715648 -3.180884 1.873467803567068e-38
0.129514 -0.707343 -3.188253 1.873467803567068e-38
0.129689 -0.698323 -3.192560 1.873467803567068e-38
0.130326 -0.691731 -3.208255 1.873467803567068e-38
0.128879 -0.674137 -3.172635 1.873467803567068e-38
0.128772 -0.663674 -3.170011 1.873467803567068e-38
0.128699 -0.653395 -3.168201 1.873467803567068e-38
0.129008 -0.645040 -3.175807 1.873467803567068e-38
0.129106 -0.635601 -3.178231 1.873467803567068e-38
0.128476 -0.622615 -3.162712 1.873467803567068e-38
0.128448 -0.612597 -3.162019 1.873467803567068e-38
0.127404 -0.597818 -3.136319 1.873467803567068e-38
0.127625 -0.589038 -3.141758 1.873467803567068e-38
0.127815 -0.580084 -3.146441 1.873467803567068e-38
0.127348 -0.568167 -3.134941 1.873467803567068e-38
0.127241 -0.557905 -3.132320 1.873467803567068e-38
0.127796 -0.550506 -3.145974 1.873467803567068e-38
0.127117 -0.537805 -3.129268 1.873467803567068e-38
0.127086 -0.527895 -3.128490 1.873467803567068e-38
0.126905 -0.517382 -3.124041 1.873467803567068e-38
0.127176 -0.508704 -3.130712 1.873467803567068e-38
0.125994 -0.494285 -3.101620 1.873467803567068e-38
0.126442 -0.486315 -3.112640 1.873467803567068e-38
0.126312 -0.476100 -3.109446 1.873467803567068e-38
0.126192 -0.465940 -3.106490 1.873467803567068e-38
0.125866 -0.455055 -3.098470 1.873467803567068e-38
0.126211 -0.446594 -3.106962 1.873467803567068e-38
0.125795 -0.435443 -3.096707 1.873467803567068e-38
0.126282 -0.427417 -3.108708 1.873467803567068e-38
0.125042 -0.413601 -3.078180 1.873467803567068e-38
0.125513 -0.405505 -3.089780 1.873467803567068e-38
0.125510 -0.395841 -3.089709 1.873467803567068e-38
0.126230 -0.388399 -3.107410 1.873467803567068e-38
0.125594 -0.376783 -3.091773 1.873467803567068e-38
0.125542 -0.366969 -3.090484 1.873467803567068e-38
0.126692 -0.360585 -3.118797 1.873467803567068e-38
0.125588 -0.347782 -3.091619 1.873467803567068e-38
0.125089 -0.336778 -3.079337 1.873467803567068e-38
0.124981 -0.326872 -3.076665 1.873467803567068e-38
0.125057 -0.317453 -3.078552 1.873467803567068e-38
0.124905 -0.307458 -3.074803 1.873467803567068e-38
0.125080 -0.298269 -3.079121 1.873467803567068e-38
0.124912 -0.288258 -3.074966 1.873467803567068e-38
0.124569 -0.277885 -3.066532 1.873467803567068e-38
0.124645 -0.268466 -3.068397 1.873467803567068e-38
0.124250 -0.258057 -3.058674 1.873467803567068e-38
0.125333 -0.250666 -3.085335 1.873467803567068e-38
0.124162 -0.238773 -3.056517 1.873467803567068e-38
0.124335 -0.229542 -3.060780 1.873467803567068e-38
0.123951 -0.219297 -3.051308 1.873467803567068e-38
0.124500 -0.210692 -3.064835 1.873467803567068e-38
0.124967 -0.201869 -3.076320 1.874089839955382e-38
0.124795 -0.191993 -3.072102 1.874089839955382e-38
0.124600 -0.182108 -3.067304 1.874089839955382e-38
0.124371 -0.172206 -3.061658 1.874089839955382e-38
0.125194 -0.163715 -3.081906 1.874089839955382e-38
0.124806 -0.153608 -3.072377 1.874089839955382e-38
0.125410 -0.144704 -3.087236 1.874089839955382e-38
0.124651 -0.134239 -3.068544 1.874089839955382e-38
0.124858 -0.124858 -3.073641 1.874089839955382e-38
0.126146 -0.116442 -3.105350 1.874089839955382e-38
0.125049 -0.105811 -3.078347 1.874089839955382e-38
0.125253 -0.096349 -3.083379 1.874089839955382e-38
0.125234 -0.086700 -3.082902 1.874089839955382e-38
0.124625 -0.076692 -3.067900 1.874089839955382e-38
0.124725 -0.067159 -3.070363 1.874089839955382e-38
0.125131 -0.057753 -3.080374 1.874089839955382e-38
0.124980 -0.048069 -3.076650 1.874089839955382e-38
0.124937 -0.038442 -3.075592 1.874089839955382e-38
0.125289 -0.028913 -3.084249 1.874089839955382e-38
0.125131 -0.019251 -3.080358 1.874089839955382e-38
0.125005 -0.009616 -3.077270 1.874089839955382e-38
0.124360 0.000000 -3.061382 1.874089839955382e-38
0.124862 0.009605 -3.073745 1.874089839955382e-38
0.124898 0.019215 -3.074628 1.874089839955382e-38
0.124785 0.028797 -3.071848 1.874089839955382e-38
0.124602 0.038339 -3.067334 1.874089839955382e-38
0.125523 0.048278 -3.090019 1.874089839955382e-38
0.125254 0.057809 -3.083388 1.874089839955382e-38
0.124889 0.067248 -3.074402 1.874089839955382e-38
0.124525 0.076631 -3.065456 1.874089839955382e-38
0.123725 0.085656 -3.045756 1.874089839955382e-38
0.124149 0.095499 -3.056193 1.874089839955382e-38
0.124914 0.105697 -3.075032 1.874089839955382e-38
0.124750 0.115153 -3.070976 1.874089839955382e-38
0.123883 0.123883 -3.049638 1.874089839955382e-38
0.124506 0.134084 -3.064991 1.874089839955382e-38
0.124164 0.143266 -3.056559 1.874089839955382e-38
0.123330 0.151791 -3.036037 1.874089839955382e-38
0.124733 0.163113 -3.070581 1.874089839955382e-38
0.124128 0.171869 -3.055667 1.874089839955382e-38
0.124295 0.181662 -3.059797 1.874089839955382e-38
0.124197 0.191072 -3.057374 1.874089839955382e-38
0.123935 0.200203 -3.050930 1.874089839955382e-38
0.124270 0.210303 -3.059165 1.874089839955382e-38
0.123913 0.219230 -3.050373 1.874089839955382e-38
0.124092 0.229092 -3.054780 1.874089839955382e-38
0.123110 0.236750 -3.030616 1.874089839955382e-38
0.124088 0.248177 -3.054700 1.874089839955382e-38
0.123511 0.256522 -3.040477 1.874089839955382e-38
0.123764 0.266568 -3.046706 1.874089839955382e-38
0.124404 0.277516 -3.062462 1.874089839955382e-38
0.124176 0.286560 -3.056855 1.874089839955382e-38
0.124209 0.296191 -3.057678 1.874089839955382e-38
0.124118 0.305522 -3.055440 1.874089839955382e-38
0.123808 0.314283 -3.047808 1.874089839955382e-38
0.124643 0.325988 -3.068343 1.874089839955382e-38
0.124660 0.335624 -3.068777 1.874089839955382e-38
0.123879 0.343050 -3.049555 1.874089839955382e-38
0.125238 0.356446 -3.082994 1.874089839955382e-38
0.124293 0.363319 -3.059748 1.874089839955382e-38
0.125355 0.376065 -3.085881 1.874089839955382e-38
0.125394 0.385828 -3.086845 1.874089839955382e-38
0.125807 0.396777 -3.097018 1.874089839955382e-38
0.126124 0.407479 -3.104822 1.874089839955382e-38
0.126962 0.419950 -3.125435 1.874089839955382e-38
0.126485 0.428102 -3.113692 1.874089839955382e-38
0.127635 0.441814 -3.142012 1.874089839955382e-38
0.128216 0.453687 -3.156308 1.874089839955382e-38
0.128246 0.463658 -3.157048 1.874089839955382e-38
0.129077 0.476592 -3.177507 1.874089839955382e-38
0.130063 0.490239 -3.201788 1.874089839955382e-38
0.197934 0.761283 -4.872559 1.880790849211783e-38
0.198612 0.779168 -4.889247 1.880790849211783e-38
0.198215 0.792860 -4.879484 1.880790849211783e-38
0.198654 0.809897 -4.890293 1.880790849211783e-38
0.197373 0.819858 -4.858766 1.880790849211783e-38
0.198301 0.838967 -4.881612 1.880790849211783e-38
0.197716 0.851699 -4.867198 1.880790849211783e-38
0.198401 0.869913 -4.884069 1.880790849211783e-38
0.197721 0.882140 -4.867328 1.880790849211783e-38
0.198868 0.902555 -4.895565 1.880790849211783e-38
0.197551 0.911772 -4.863131 1.880790849211783e-38
0.197467 0.926575 -4.861066 1.880790849211783e-38
0.199081 0.949465 -4.900813 1.880790849211783e-38
0.198139 0.960210 -4.877606 1.880790849211783e-38
0.198026 0.974896 -4.874830 1.880790849211783e-38
0.198243 0.991217 -4.880187 1.880790849211783e-38
0.198760 1.009091 -4.892911 1.880790849211783e-38
0.198140 1.021183 -4.877638 1.880790849211783e-38
0.198381 1.037688 -4.883584 1.880790849211783e-38
0.198377 1.052925 -4.883481 1.880790849211783e-38
0.198103 1.066707 -4.876721 1.880790849211783e-38
0.197263 1.077359 -4.856049 1.880790849211783e-38
0.198338 1.098488 -4.882517 1.880790849211783e-38
0.198115 1.112490 -4.877018 1.880790849211783e-38
0.198476 1.129787 -4.885915 1.880790849211783e-38
0.198634 1.145964 -4.889795 1.880790849211783e-38
0.197659 1.155544 -4.865796 1.880790849211783e-38
0.198114 1.173442 -4.876990 1.880790849211783e-38
0.199109 1.194656 -4.901503 1.880790849211783e-38
0.197741 1.201656 -4.867815 1.880790849211783e-38
0.197572 1.215830 -4.863669 1.880790849211783e-38
0.197722 1.231960 -4.867349 1.880790849211783e-38
0.198275 1.250661 -4.880975 1.880790849211783e-38
0.198087 1.264709 -4.876335 1.880790849211783e-38
0.197839 1.278347 -4.870239 1.880790849211783e-38
0.198629 1.298727 -4.889674 1.880790849211783e-38
0.198186 1.311079 -4.878782 1.880790849211783e-38
0.197723 1.323223 -4.867373 1.880790849211783e-38
0.197993 1.340258 -4.874013 1.880790849211783e-38
0.198203 1.356931 -4.879200 1.880790849211783e-38
0.198381 1.373404 -4.883562 1.880790849211783e-38
0.197968 1.385776 -4.873407 1.880790849211783e-38
0.198245 1.402968 -4.880236 1.880790849211783e-38
0.197929 1.415954 -4.872447 1.880790849211783e-38
0.198556 1.435714 -4.887885 1.880790849211783e-38
0.198127 1.447849 -4.877313 1.880790849211783e-38
0.198698 1.467310 -4.891381 1.880790849211783e-38
0.198145 1.478463 -4.877752 1.880790849211783e-38
0.198087 1.493274 -4.876343 1.880790849211783e-38
0.198665 1.512911 -4.890565 1.880790849211783e-38
0.197781 1.521389 -4.868793 1.880790849211783e-38
0.197799 1.536744 -4.869238 1.880790849211783e-38
0.198121 1.554490 -4.877178 1.880790849211783e-38
0.197573 1.565387 -4.863686 1.880790849211783e-38
0.198417 1.587334 -4.884452 1.880790849211783e-38
0.198149 1.600430 -4.877851 1.880790849211783e-38
0.198002 1.614478 -4.874242 1.880790849211783e-38
0.198278 1.631977 -4.881027 1.880790849211783e-38
0.197996 1.644891 -4.874099 1.880790849211783e-38
0.197533 1.656242 -4.862709 1.880790849211783e-38
0.197950 1.674960 -4.872959 1.880790849211783e-38
0.198238 1.692645 -4.880046 1.880790849211783e-38
0.197824 1.704331 -4.869864 1.880790849211783e-38
0.197784 1.719203 -4.868886 1.880790849211783e-38
0.198226 1.738287 -4.879750 1.880790849211783e-38
0.197999 1.751530 -4.874172 1.880790849211783e-38
0.197476 1.762094 -4.861296 1.880790849211783e-38
0.198746 1.788711 -4.892550 1.880790849211783e-38
0.198258 1.799575 -4.880551 1.880790849211783e-38
0.198233 1.814597 -4.879936 1.880790849211783e-38
0.197678 1.824717 -4.866259 1.880790849211783e-38
0.198424 1.846866 -4.884623 1.880790849211783e-38
0.197551 1.853943 -4.863147 1.880790849211783e-38
0.198330 1.876503 -4.882308 1.880790849211783e-38
0.198110 1.889668 -4.876909 1.880790849211783e-38
0.198215 1.905914 -4.879488 1.880790849211783e-38
0.198030 1.919371 -4.874942 1.880790849211783e-38
0.198706 1.941201 -4.891564 1.880790849211783e-38
0.125827 -1.150422 -2.876259 4.333194603576166e-39
0.126196 -1.144776 -2.884680 4.333194603576166e-39
0.127224 -1.145012 -2.908174 4.333194603576166e-39
0.128459 -1.146955 -2.936413 4.333194603576166e-39
0.128798 -1.140783 -2.944165 4.333194603576166e-39
0.129959 -1.141781 -2.970698 4.333194603576166e-39
0.130727 -1.139195 -2.988266 4.333194603576166e-39
0.132722 -1.147097 -3.033861 4.333194603576166e-39
0.133306 -1.142620 -3.047204 4.333194603576166e-39
0.134537 -1.143561 -3.075342 4.333194603576166e-39
0.135174 -1.139320 -3.089902 4.333194603576166e-39
0.136751 -1.142852 -3.125971 4.333194603576166e-39
0.138603 -1.148426 -3.168298 4.333194603576166e-39
0.139702 -1.147549 -3.193407 4.333194603576166e-39
0.139790 -1.138294 -3.195438 4.333194603576166e-39
0.141490 -1.142024 -3.234280 4.333194603576166e-39
0.143521 -1.148166 -3.280708 4.333194603576166e-39
0.143914 -1.141029 -3.289687 4.333194603576166e-39
0.145084 -1.139947 -3.316446 4.333194603576166e-39
0.146465 -1.140331 -3.348001 4.333194603576166e-39
0.148311 -1.144112 -3.390203 4.333194603576166e-39
0.148893 -1.137969 -3.403514 4.333194603576166e-39
0.150680 -1.140863 -3.444359 4.333194603576166e-39
0.151504 -1.136281 -3.463199 4.333194603576166e-39
0.153330 -1.139023 -3.504937 4.333194603576166e-39
0.154256 -1.134881 -3.526096 4.333194603576166e-39
0.157543 -1.147813 -3.601239 4.333194603576166e-39
0.158435 -1.142999 -3.621640 4.333194603576166e-39
0.159933 -1.142381 -3.655881 4.333194603576166e-39
0.161369 -1.141110 -3.688700 4.333194603576166e-39
0.162475 -1.137327 -3.713986 4.333194603576166e-39
0.165109 -1.143972 -3.774198 4.333194603576166e-39
0.166322 -1.140492 -3.801913 4.333194603576166e-39
0.168650 -1.144414 -3.855143 4.333194603576166e-39
0.169884 -1.140652 -3.883349 4.333194603576166e-39
0.171188 -1.137174 -3.913137 4.333194603576166e-39
0.173868 -1.142562 -3.974413 4.333194603576166e-39
0.175165 -1.138572 -4.004054 4.333194603576166e-39
0.141674 -0.910764 -3.238504 1.873467803567068e-38
0.141618 -0.900284 -3.237206 1.873467803567068e-38
0.142050 -0.892887 -3.247092 1.873467803567068e-38
0.141672 -0.880389 -3.238442 1.873467803567068e-38
0.140845 -0.865192 -3.219547 1.873467803567068e-38
0.140056 -0.850343 -3.201519 1.873467803567068e-38
0.141235 -0.847409 -3.228456 1.873467803567068e-38
0.141107 -0.836564 -3.225539 1.873467803567068e-38
0.140019 -0.820110 -3.200660 1.873467803567068e-38
0.140373 -0.812159 -3.208760 1.873467803567068e-38
0.140458 -0.802616 -3.210693 1.873467803567068e-38
0.140040 -0.790227 -3.201147 1.873467803567068e-38
0.139631 -0.777943 -3.191790 1.873467803567068e-38
0.140382 -0.772103 -3.208970 1.873467803567068e-38
0.140137 -0.760745 -3.203367 1.873467803567068e-38
0.139140 -0.745391 -3.180562 1.873467803567068e-38
0.139895 -0.739443 -3.197819 1.873467803567068e-38
0.140123 -0.730641 -3.203039 1.873467803567068e-38
0.139809 -0.719017 -3.195857 1.873467803567068e-38
0.139015 -0.705002 -3.177702 1.873467803567068e-38
0.140000 -0.700002 -3.200237 1.873467803567068e-38
0.139304 -0.686568 -3.184310 1.873467803567068e-38
0.140215 -0.681043 -3.205137 1.873467803567068e-38
0.139338 -0.666832 -3.185096 1.873467803567068e-38
0.138463 -0.652753 -3.165089 1.873467803567068e-38
0.139185 -0.646218 -3.181610 1.873467803567068e-38
0.137945 -0.630607 -3.153262 1.873467803567068e-38
0.137665 -0.619493 -3.146856 1.873467803567068e-38
0.137742 -0.609998 -3.148603 1.873467803567068e-38
0.138198 -0.602150 -3.159046 1.873467803567068e-38
0.137985 -0.591364 -3.154164 1.873467803567068e-38
0.136739 -0.576257 -3.125683 1.873467803567068e-38
0.137124 -0.568085 -3.134485 1.873467803567068e-38
0.136711 -0.556609 -3.125043 1.873467803567068e-38
0.136519 -0.546076 -3.120658 1.873467803567068e-38
0.136993 -0.538188 -3.131499 1.873467803567068e-38
0.137151 -0.529011 -3.135101 1.873467803567068e-38
0.136854 -0.518089 -3.128309 1.873467803567068e-38
0.135565 -0.503528 -3.098858 1.873467803567068e-38
0.136006 -0.495451 -3.108936 1.873467803567068e-38
0.136162 -0.486294 -3.112504 1.873467803567068e-38
0.136139 -0.476486 -3.111968 1.873467803567068e-38
0.135485 -0.464519 -3.097017 1.873467803567068e-38
0.136481 -0.458186 -3.119786 1.873467803567068e-38
0.135416 -0.444938 -3.095439 1.873467803567068e-38
0.136414 -0.438473 -3.118257 1.873467803567068e-38
0.135992 -0.427403 -3.108607 1.873467803567068e-38
0.136059 -0.417895 -3.110138 1.873467803567068e-38
0.135267 -0.405800 -3.092033 1.873467803567068e-38
0.135217 -0.395994 -3.090906 1.873467803567068e-38
0.134876 -0.385359 -3.083090 1.873467803567068e-38
0.134836 -0.375616 -3.082195 1.873467803567068e-38
0.134921 -0.366214 -3.084125 1.873467803567068e-38
0.134448 -0.355327 -3.073320 1.873467803567068e-38
0.135169 -0.347576 -3.089787 1.873467803567068e-38
0.135196 -0.337991 -3.090423 1.873467803567068e-38
0.134999 -0.327854 -3.085910 1.873467803567068e-38
0.134414 -0.316833 -3.072537 1.873467803567068e-38
0.134589 -0.307633 -3.076545 1.873467803567068e-38
0.134625 -0.298098 -3.077361 1.873467803567068e-38
0.135450 -0.290249 -3.096213 1.873467803567068e-38
0.134851 -0.279335 -3.082538 1.873467803567068e-38
0.134752 -0.269504 -3.080270 1.873467803567068e-38
0.133511 -0.257485 -3.051898 1.873467803567068e-38
0.134864 -0.250461 -3.082822 1.873467803567068e-38
0.134265 -0.239758 -3.069124 1.873467803567068e-38
0.133966 -0.229656 -3.062302 1.873467803567068e-38
0.134985 -0.221762 -3.085600 1.873467803567068e-38
0.134118 -0.210756 -3.065765 1.873467803567068e-38
0.133790 -0.200684 -3.058265 1.873467803567068e-38
0.134934 -0.192763 -3.084422 1.874089839955382e-38
0.134496 -0.182530 -3.074413 1.874089839955382e-38
0.134375 -0.172768 -3.071643 1.874089839955382e-38
0.133752 -0.162413 -3.057408 1.874089839955382e-38
0.133920 -0.153051 -3.061248 1.874089839955382e-38
0.135326 -0.144993 -3.093395 1.874089839955382e-38
0.134721 -0.134721 -3.079561 1.874089839955382e-38
0.134801 -0.125172 -3.081388 1.874089839955382e-38
0.134783 -0.115529 -3.080984 1.874089839955382e-38
0.135837 -0.106729 -3.105059 1.874089839955382e-38
0.135392 -0.096709 -3.094903 1.874089839955382e-38
0.134916 -0.086732 -3.084011 1.874089839955382e-38
0.135351 -0.077343 -3.093960 1.874089839955382e-38
0.135112 -0.067556 -3.088497 1.874089839955382e-38
0.134366 -0.057586 -3.071452 1.874089839955382e-38
0.135015 -0.048220 -3.086269 1.874089839955382e-38
0.135002 -0.038572 -3.085980 1.874089839955382e-38
0.135210 -0.028974 -3.090733 1.874089839955382e-38
0.134478 -0.019211 -3.073993 1.874089839955382e-38
0.134953 -0.009639 -3.084859 1.874089839955382e-38
0.134653 0.000000 -3.078002 1.874089839955382e-38
0.135071 0.009648 -3.087562 1.874089839955382e-38
0.135682 0.019383 -3.101527 1.874089839955382e-38
0.134397 0.028799 -3.072146 1.874089839955382e-38
0.134853 0.038529 -3.082573 1.874089839955382e-38
0.135197 0.048285 -3.090431 1.874089839955382e-38
0.135183 0.057935 -3.090112 1.874089839955382e-38
0.135360 0.067680 -3.094169 1.874089839955382e-38
0.134380 0.076789 -3.071769 1.874089839955382e-38
0.135667 0.087215 -3.101188 1.874089839955382e-38
0.134260 0.095900 -3.069025 1.874089839955382e-38
0.135071 0.106127 -3.087564 1.874089839955382e-38
0.133943 0.114808 -3.061766 1.874089839955382e-38
0.134798 0.125170 -3.081326 1.874089839955382e-38
0.133503 0.133503 -3.051709 1.874089839955382e-38
0.134204 0.143790 -3.067735 1.874089839955382e-38
0.134975 0.154257 -3.085361 1.874089839955382e-38
0.133615 0.162247 -3.054276 1.874089839955382e-38
0.134322 0.172700 -3.070441 1.874089839955382e-38
0.134100 0.181992 -3.065351 1.874089839955382e-38
0.134246 0.191780 -3.068703 1.874089839955382e-38
0.134444 0.201665 -3.073216 1.874089839955382e-38
0.134240 0.210949 -3.068568 1.874089839955382e-38
0.133257 0.218922 -3.046086 1.874089839955382e-38
0.134431 0.230454 -3.072934 1.874089839955382e-38
0.134560 0.240286 -3.075876 1.874089839955382e-38
0.134373 0.249550 -3.071602 1.874089839955382e-38
0.134739 0.259855 -3.079978 1.874089839955382e-38
0.134795 0.269590 -3.081244 1.874089839955382e-38
0.134411 0.278422 -3.072464 1.874089839955382e-38
0.133389 0.285834 -3.049114 1.874089839955382e-38
0.133805 0.296283 -3.058623 1.874089839955382e-38
0.133832 0.305901 -3.059227 1.874089839955382e-38
0.134240 0.316423 -3.068563 1.874089839955382e-38
0.133843 0.325048 -3.059492 1.874089839955382e-38
0.134633 0.336583 -3.077546 1.874089839955382e-38
0.134641 0.346219 -3.077721 1.874089839955382e-38
0.134658 0.355883 -3.078126 1.874089839955382e-38
0.134898 0.366150 -3.083592 1.874089839955382e-38
0.135410 0.377213 -3.095305 1.874089839955382e-38
0.136245 0.389270 -3.114384 1.874089839955382e-38
0.135452 0.396680 -3.096262 1.874089839955382e-38
0.135865 0.407594 -3.105699 1.874089839955382e-38
0.136875 0.420401 -3.128786 1.874089839955382e-38
0.136991 0.430543 -3.131447 1.874089839955382e-38
0.136928 0.440125 -3.130005 1.874089839955382e-38
0.137923 0.453175 -3.152749 1.874089839955382e-38
0.138663 0.465511 -3.169666 1.874089839955382e-38
0.139336 0.477723 -3.185049 1.874089839955382e-38
0.212870 0.745044 -4.865940 1.880790849211783e-38
0.213558 0.762708 -4.881682 1.880790849211783e-38
0.213278 0.776942 -4.875280 1.880790849211783e-38
0.213198 0.791880 -4.873454 1.880790849211783e-38
0.213734 0.809135 -4.885692 1.880790849211783e-38
0.213479 0.823420 -4.879874 1.880790849211783e-38
0.213175 0.837473 -4.872919 1.880790849211783e-38
0.213554 0.854217 -4.881591 1.880790849211783e-38
0.213072 0.867506 -4.870556 1.880790849211783e-38
0.213329 0.883792 -4.876440 1.880790849211783e-38
0.213564 0.900021 -4.881818 1.880790849211783e-38
0.213350 0.914355 -4.876910 1.880790849211783e-38
0.213147 0.928710 -4.872271 1.880790849211783e-38
0.213782 0.946750 -4.886799 1.880790849211783e-38
0.212616 0.956770 -4.860131 1.880790849211783e-38
0.214068 0.978595 -4.893324 1.880790849211783e-38
0.213260 0.990135 -4.874857 1.880790849211783e-38
0.213387 1.005969 -4.877772 1.880790849211783e-38
0.214007 1.024176 -4.891936 1.880790849211783e-38
0.212501 1.032148 -4.857513 1.880790849211783e-38
0.213558 1.052536 -4.881673 1.880790849211783e-38
0.213552 1.067760 -4.881535 1.880790849211783e-38
0.213332 1.081899 -4.876513 1.880790849211783e-38
0.213930 1.100213 -4.890183 1.880790849211783e-38
0.213672 1.114147 -4.884279 1.880790849211783e-38
0.213315 1.127520 -4.876112 1.880790849211783e-38
0.213193 1.142108 -4.873342 1.880790849211783e-38
0.212936 1.155939 -4.867459 1.880790849211783e-38
0.213901 1.176456 -4.889515 1.880790849211783e-38
0.213713 1.190688 -4.885223 1.880790849211783e-38
0.213283 1.203528 -4.875399 1.880790849211783e-38
0.212887 1.216500 -4.866346 1.880790849211783e-38
0.213846 1.237251 -4.888255 1.880790849211783e-38
0.213769 1.252073 -4.886487 1.880790849211783e-38
0.213962 1.268491 -4.890915 1.880790849211783e-38
0.213197 1.279179 -4.873411 1.880790849211783e-38
0.213944 1.298943 -4.890488 1.880790849211783e-38
0.213670 1.312544 -4.884233 1.880790849211783e-38
0.213449 1.326431 -4.879176 1.880790849211783e-38
0.212201 1.333832 -4.850643 1.880790849211783e-38
0.213729 1.358703 -4.885573 1.880790849211783e-38
0.213395 1.371824 -4.877943 1.880790849211783e-38
0.213713 1.389135 -4.885219 1.880790849211783e-38
0.212898 1.399044 -4.866589 1.880790849211783e-38
0.212763 1.413351 -4.863491 1.880790849211783e-38
0.213523 1.433656 -4.880880 1.880790849211783e-38
0.213198 1.446697 -4.873434 1.880790849211783e-38
0.213543 1.464293 -4.881325 1.880790849211783e-38
0.213466 1.479012 -4.879565 1.880790849211783e-38
0.213160 1.492122 -4.872582 1.880790849211783e-38
0.213844 1.512182 -4.888211 1.880790849211783e-38
0.214222 1.530160 -4.896863 1.880790849211783e-38
0.213280 1.538662 -4.875318 1.880790849211783e-38
0.212514 1.548316 -4.857807 1.880790849211783e-38
0.213000 1.567070 -4.868915 1.880790849211783e-38
0.213003 1.582308 -4.868989 1.880790849211783e-38
0.213513 1.601348 -4.880648 1.880790849211783e-38
0.213081 1.613325 -4.870764 1.880790849211783e-38
0.213243 1.629785 -4.874473 1.880790849211783e-38
0.213659 1.648229 -4.883988 1.880790849211783e-38
0.213932 1.665614 -4.890225 1.880790849211783e-38
0.213239 1.675448 -4.874378 1.880790849211783e-38
0.214029 1.696947 -4.892449 1.880790849211783e-38
0.212945 1.703559 -4.867659 1.880790849211783e-38
0.212730 1.717035 -4.862748 1.880790849211783e-38
0.212502 1.730369 -4.857524 1.880790849211783e-38
0.212813 1.748107 -4.864644 1.880790849211783e-38
0.213181 1.766358 -4.873058 1.880790849211783e-38
0.212913 1.779346 -4.866933 1.880790849211783e-38
0.213764 1.801725 -4.886383 1.880790849211783e-38
0.213643 1.815963 -4.883611 1.880790849211783e-38
0.213095 1.826532 -4.871100 1.880790849211783e-38
0.212707 1.838400 -4.862233 1.880790849211783e-38
0.214104 1.865766 -4.894163 1.880790849211783e-38
0.213354 1.874470 -4.877018 1.880790849211783e-38
0.212829 1.885056 -4.865008 1.880790849211783e-38
0.212503 1.897348 -4.857557 1.880790849211783e-38
0.213668 1.923016 -4.884198 1.880790849211783e-38
0.213818 1.939639 -4.887629 1.880790849211783e-38
0.133457 -1.138833 -2.847285 4.333194603576166e-39
0.135038 -1.143322 -2.881018 4.333194603576166e-39
0.136348 -1.145321 -2.908960 4.333194603576166e-39
0.137050 -1.142083 -2.923941 4.333194603576166e-39
0.137469 -1.136409 -2.932878 4.333194603576166e-39
0.139819 -1.146520 -2.983028 4.333194603576166e-39
0.139723 -1.136410 -2.980962 4.333194603576166e-39
0.141249 -1.139410 -3.013532 4.333194603576166e-39
0.143050 -1.144400 -3.051952 4.333194603576166e-39
0.144580 -1.146999 -3.084586 4.333194603576166e-39
0.145699 -1.146169 -3.108475 4.333194603576166e-39
0.146825 -1.145232 -3.132482 4.333194603576166e-39
0.147277 -1.138943 -3.142135 4.333194603576166e-39
0.149323 -1.144807 -3.185776 4.333194603576166e-39
0.149704 -1.137750 -3.193913 4.333194603576166e-39
0.151366 -1.140293 -3.229380 4.333194603576166e-39
0.153639 -1.147173 -3.277871 4.333194603576166e-39
0.153041 -1.132503 -3.265107 4.389633300525313e-39
0.151747 -1.112815 -3.237509 4.389633300525313e-39
0.151930 -1.104024 -3.241402 4.389633300525313e-39
0.151996 -1.094373 -3.242817 4.389633300525313e-39
0.151708 -1.082185 -3.236671 4.389633300525313e-39
0.151327 -1.069378 -3.228541 4.389633300525313e-39
0.152294 -1.066059 -3.249173 4.389633300525313e-39
0.151917 -1.053292 -3.241129 4.389633300525313e-39
0.152032 -1.043952 -3.243577 4.389633300525313e-39
0.167919 -1.141850 -3.582531 4.333194603576166e-39
0.169726 -1.142825 -3.621089 4.333194603576166e-39
0.171871 -1.145805 -3.666838 4.333194603576166e-39
0.172683 -1.139709 -3.684171 4.333194603576166e-39
0.151482 -0.989682 -3.231844 1.873467803567068e-38
0.151472 -0.979518 -3.231631 1.873467803567068e-38
0.151083 -0.966931 -3.223333 1.873467803567068e-38
0.151536 -0.959728 -3.232998 1.873467803567068e-38
0.151595 -0.949996 -3.234260 1.873467803567068e-38
0.151161 -0.937199 -3.225002 1.873467803567068e-38
0.151389 -0.928520 -3.229864 1.873467803567068e-38
0.150827 -0.915015 -3.217864 1.873467803567068e-38
0.150042 -0.900254 -3.201131 1.873467803567068e-38
0.151067 -0.896333 -3.222999 1.873467803567068e-38
0.150210 -0.881234 -3.204715 1.873467803567068e-38
0.150623 -0.873612 -3.213513 1.873467803567068e-38
0.150285 -0.861635 -3.206311 1.873467803567068e-38
0.150773 -0.854380 -3.216720 1.873467803567068e-38
0.151617 -0.849055 -3.234727 1.873467803567068e-38
0.150271 -0.831501 -3.206017 1.873467803567068e-38
0.150341 -0.821862 -3.207496 1.873467803567068e-38
0.149740 -0.808596 -3.194680 1.873467803567068e-38
0.149801 -0.798941 -3.195991 1.873467803567068e-38
0.149834 -0.789127 -3.196691 1.873467803567068e-38
0.149244 -0.776067 -3.184090 1.873467803567068e-38
0.149550 -0.767690 -3.190628 1.873467803567068e-38
0.148990 -0.754883 -3.178682 1.873467803567068e-38
0.148600 -0.742999 -3.170354 1.873467803567068e-38
0.149173 -0.735919 -3.182578 1.873467803567068e-38
0.149485 -0.727492 -3.189234 1.873467803567068e-38
0.148909 -0.714762 -3.176947 1.873467803567068e-38
0.149582 -0.708021 -3.191307 1.873467803567068e-38
0.148960 -0.695146 -3.178035 1.873467803567068e-38
0.149495 -0.687679 -3.189462 1.873467803567068e-38
0.147997 -0.670922 -3.157504 1.873467803567068e-38
0.148113 -0.661571 -3.159966 1.873467803567068e-38
0.148383 -0.652887 -3.165739 1.873467803567068e-38
0.148803 -0.644811 -3.174680 1.873467803567068e-38
0.148077 -0.631795 -3.159198 1.873467803567068e-38
0.147294 -0.618636 -3.142504 1.873467803567068e-38
0.147798 -0.610899 -3.153250 1.873467803567068e-38
0.147966 -0.601729 -3.156838 1.873467803567068e-38
0.147094 -0.588375 -3.138226 1.873467803567068e-38
0.147090 -0.578554 -3.138144 1.873467803567068e-38
0.147199 -0.569169 -3.140465 1.873467803567068e-38
0.146559 -0.556923 -3.126809 1.873467803567068e-38
0.146880 -0.548353 -3.133671 1.873467803567068e-38
0.146512 -0.537211 -3.125814 1.873467803567068e-38
0.146713 -0.528168 -3.130109 1.873467803567068e-38
0.146569 -0.517879 -3.127037 1.873467803567068e-38
0.146437 -0.507650 -3.124223 1.873467803567068e-38
0.146376 -0.497677 -3.122901 1.873467803567068e-38
0.145394 -0.484645 -3.101949 1.873467803567068e-38
0.145525 -0.475383 -3.104762 1.873467803567068e-38
0.145916 -0.466930 -3.113089 1.873467803567068e-38
0.146211 -0.458129 -3.119398 1.873467803567068e-38
0.146194 -0.448329 -3.119030 1.873467803567068e-38
0.145310 -0.435931 -3.100172 1.873467803567068e-38
0.144955 -0.425201 -3.092592 1.873467803567068e-38
0.145435 -0.416913 -3.102831 1.873467803567068e-38
0.145263 -0.406737 -3.099168 1.873467803567068e-38
0.145405 -0.397440 -3.102191 1.873467803567068e-38
0.144992 -0.386646 -3.093389 1.873467803567068e-38
0.143809 -0.373905 -3.068154 1.873467803567068e-38
0.144780 -0.366776 -3.088858 1.873467803567068e-38
0.144814 -0.357207 -3.089581 1.873467803567068e-38
0.145331 -0.348794 -3.100613 1.873467803567068e-38
0.144203 -0.336475 -3.076560 1.873467803567068e-38
0.143757 -0.325850 -3.067044 1.873467803567068e-38
0.144389 -0.317655 -3.080510 1.873467803567068e-38
0.143846 -0.306872 -3.068943 1.873467803567068e-38
0.144055 -0.297714 -3.073397 1.873467803567068e-38
0.145021 -0.290043 -3.094009 1.873467803567068e-38
0.144077 -0.278550 -3.073871 1.873467803567068e-38
0.144358 -0.269468 -3.079856 1.873467803567068e-38
0.145070 -0.261125 -3.095038 1.873467803567068e-38
0.144732 -0.250869 -3.087838 1.873467803567068e-38
0.144312 -0.240519 -3.078868 1.873467803567068e-38
0.143574 -0.229718 -3.063132 1.873467803567068e-38
0.143988 -0.220782 -3.071970 1.873467803567068e-38
0.144054 -0.211279 -3.073363 1.873467803567068e-38
0.143836 -0.201371 -3.068727 1.873467803567068e-38
0.144498 -0.192665 -3.082854 1.874089839955382e-38
0.144106 -0.182534 -3.074480 1.874089839955382e-38
0.144533 -0.173440 -3.083599 1.874089839955382e-38
0.144460 -0.163722 -3.082043 1.874089839955382e-38
0.144450 -0.154080 -3.081829 1.874089839955382e-38
0.144720 -0.144720 -3.087579 1.874089839955382e-38
0.145295 -0.135609 -3.099846 1.874089839955382e-38
0.145169 -0.125813 -3.097149 1.874089839955382e-38
0.144623 -0.115699 -3.085518 1.874089839955382e-38
0.144542 -0.105997 -3.083774 1.874089839955382e-38
0.145787 -0.097191 -3.110343 1.874089839955382e-38
0.144733 -0.086840 -3.087850 1.874089839955382e-38
0.146324 -0.078039 -3.121795 1.874089839955382e-38
0.145371 -0.067840 -3.101479 1.874089839955382e-38
0.145755 -0.058302 -3.109673 1.874089839955382e-38
0.144916 -0.048305 -3.091772 1.874089839955382e-38
0.145017 -0.038671 -3.093919 1.874089839955382e-38
0.145293 -0.029059 -3.099805 1.874089839955382e-38
0.145203 -0.019360 -3.097893 1.874089839955382e-38
0.144670 -0.009645 -3.086524 1.874089839955382e-38
0.144923 0.000000 -3.091913 1.874089839955382e-38
0.145507 0.009700 -3.104377 1.874089839955382e-38
0.145783 0.019438 -3.110269 1.874089839955382e-38
0.144278 0.028856 -3.078161 1.874089839955382e-38
0.146412 0.039043 -3.123668 1.874089839955382e-38
0.145669 0.048556 -3.107817 1.874089839955382e-38
0.145396 0.058158 -3.101998 1.874089839955382e-38
0.145182 0.067751 -3.097428 1.874089839955382e-38
0.145357 0.077524 -3.101181 1.874089839955382e-38
0.144608 0.086765 -3.085183 1.874089839955382e-38
0.144436 0.096290 -3.081514 1.874089839955382e-38
0.144627 0.106060 -3.085595 1.874089839955382e-38
0.145239 0.116192 -3.098664 1.874089839955382e-38
0.145222 0.125859 -3.098282 1.874089839955382e-38
0.144996 0.135329 -3.093462 1.874089839955382e-38
0.143543 0.143543 -3.062473 1.874089839955382e-38
0.144180 0.153792 -3.076050 1.874089839955382e-38
0.145350 0.164730 -3.101026 1.874089839955382e-38
0.144428 0.173314 -3.081361 1.874089839955382e-38
0.144514 0.183051 -3.083176 1.874089839955382e-38
0.144587 0.192782 -3.084733 1.874089839955382e-38
0.145086 0.203120 -3.095389 1.874089839955382e-38
0.144532 0.211980 -3.083569 1.874089839955382e-38
0.144117 0.220979 -3.074715 1.874089839955382e-38
0.143682 0.229891 -3.065426 1.874089839955382e-38
0.143704 0.239507 -3.065912 1.874089839955382e-38
0.143815 0.249280 -3.068274 1.874089839955382e-38
0.143936 0.259084 -3.070846 1.874089839955382e-38
0.144574 0.269871 -3.084456 1.874089839955382e-38
0.144215 0.278816 -3.076813 1.874089839955382e-38
0.143563 0.287126 -3.062893 1.874089839955382e-38
0.143607 0.296787 -3.063829 1.874089839955382e-38
0.145500 0.310400 -3.104219 1.874089839955382e-38
0.144840 0.318647 -3.090131 1.874089839955382e-38
0.143914 0.326205 -3.070385 1.874089839955382e-38
0.144697 0.337625 -3.087080 1.874089839955382e-38
0.144545 0.346908 -3.083847 1.874089839955382e-38
0.145139 0.358010 -3.096520 1.874089839955382e-38
0.144849 0.366950 -3.090326 1.874089839955382e-38
0.145524 0.378363 -3.104741 1.874089839955382e-38
0.145665 0.388439 -3.107735 1.874089839955382e-38
0.146386 0.400122 -3.123127 1.874089839955382e-38
0.145890 0.408491 -3.112535 1.874089839955382e-38
0.146784 0.420781 -3.131619 1.874089839955382e-38
0.147048 0.431340 -3.137244 1.874089839955382e-38
0.148088 0.444264 -3.159436 1.874089839955382e-38
0.148152 0.454331 -3.160792 1.874089839955382e-38
0.149408 0.468145 -3.187599 1.874089839955382e-38
0.150365 0.481168 -3.208016 1.874089839955382e-38
0.228747 0.747239 -4.880273 1.880790849211783e-38
0.228822 0.762738 -4.881875 1.880790849211783e-38
0.229060 0.778804 -4.886959 1.880790849211783e-38
0.227837 0.789836 -4.860876 1.880790849211783e-38
0.228915 0.808832 -4.883862 1.880790849211783e-38
0.229251 0.825303 -4.891032 1.880790849211783e-38
0.228065 0.836237 -4.865725 1.880790849211783e-38
0.228478 0.852985 -4.874546 1.880790849211783e-38
0.229870 0.873505 -4.904238 1.880790849211783e-38
0.228275 0.882663 -4.870214 1.880790849211783e-38
0.228497 0.898754 -4.874944 1.880790849211783e-38
0.228315 0.913262 -4.871077 1.880790849211783e-38
0.228540 0.929398 -4.875877 1.880790849211783e-38
0.228298 0.943633 -4.870714 1.880790849211783e-38
0.229022 0.961891 -4.886144 1.880790849211783e-38
0.228688 0.975736 -4.879026 1.880790849211783e-38
0.228607 0.990629 -4.877289 1.880790849211783e-38
0.228160 1.003906 -4.867771 1.880790849211783e-38
0.229538 1.025272 -4.897169 1.880790849211783e-38
0.228799 1.037223 -4.881399 1.880790849211783e-38
0.228736 1.052186 -4.880051 1.880790849211783e-38
0.228356 1.065662 -4.871945 1.880790849211783e-38
0.227236 1.075585 -4.848055 1.880790849211783e-38
0.227720 1.093057 -4.858377 1.880790849211783e-38
0.229020 1.114562 -4.886100 1.880790849211783e-38
0.229130 1.130375 -4.888454 1.880790849211783e-38
0.228456 1.142279 -4.874073 1.880790849211783e-38
0.228705 1.158770 -4.879381 1.880790849211783e-38
0.228614 1.173553 -4.877450 1.880790849211783e-38
0.229502 1.193410 -4.896391 1.880790849211783e-38
0.229040 1.206276 -4.886532 1.880790849211783e-38
0.228322 1.217718 -4.871218 1.880790849211783e-38
0.228665 1.234790 -4.878529 1.880790849211783e-38
0.228703 1.250240 -4.879335 1.880790849211783e-38
0.228858 1.266347 -4.882648 1.880790849211783e-38
0.228311 1.278540 -4.870974 1.880790849211783e-38
0.229023 1.297796 -4.886170 1.880790849211783e-38
0.228369 1.309315 -4.872219 1.880790849211783e-38
0.229639 1.331906 -4.899314 1.880790849211783e-38
0.228005 1.337629 -4.864454 1.880790849211783e-38
0.228157 1.353730 -4.867690 1.880790849211783e-38
0.228672 1.372033 -4.878688 1.880790849211783e-38
0.229272 1.390915 -4.891477 1.880790849211783e-38
0.228644 1.402352 -4.878094 1.880790849211783e-38
0.228296 1.415436 -4.870666 1.880790849211783e-38
0.228179 1.429920 -4.868161 1.880790849211783e-38
0.227693 1.442058 -4.857806 1.880790849211783e-38
0.228158 1.460214 -4.867726 1.880790849211783e-38
0.229358 1.483179 -4.893311 1.880790849211783e-38
0.228245 1.491198 -4.869564 1.880790849211783e-38
0.228910 1.510806 -4.883762 1.880790849211783e-38
0.228393 1.522617 -4.872723 1.880790849211783e-38
0.228587 1.539155 -4.876880 1.880790849211783e-38
0.228998 1.557187 -4.885641 1.880790849211783e-38
0.228586 1.569623 -4.876848 1.880790849211783e-38
0.228792 1.586294 -4.881253 1.880790849211783e-38
0.228175 1.597228 -4.868089 1.880790849211783e-38
0.227914 1.610589 -4.862503 1.880790849211783e-38
0.229288 1.635590 -4.891832 1.880790849211783e-38
0.228672 1.646437 -4.878681 1.880790849211783e-38
0.228378 1.659546 -4.872409 1.880790849211783e-38
0.228700 1.677136 -4.879290 1.880790849211783e-38
0.229204 1.696112 -4.890042 1.880790849211783e-38
0.229489 1.713515 -4.896107 1.880790849211783e-38
0.228461 1.721074 -4.874186 1.880790849211783e-38
0.228196 1.734292 -4.868536 1.880790849211783e-38
0.228296 1.750267 -4.870654 1.880790849211783e-38
0.228640 1.768151 -4.878006 1.880790849211783e-38
0.228868 1.785168 -4.882858 1.880790849211783e-38
0.228819 1.800044 -4.881824 1.880790849211783e-38
0.229504 1.820729 -4.896427 1.880790849211783e-38
0.229109 1.832868 -4.887998 1.880790849211783e-38
0.228618 1.844181 -4.877522 1.880790849211783e-38
0.228001 1.854411 -4.864377 1.880790849211783e-38
0.228169 1.870989 -4.867959 1.880790849211783e-38
0.228697 1.890558 -4.879208 1.880790849211783e-38
0.228980 1.908168 -4.885258 1.880790849211783e-38
0.229149 1.924854 -4.888867 1.880790849211783e-38
0.228157 1.931728 -4.867692 1.880790849211783e-38
0.142360 -1.138879 -2.847401 4.333194603576166e-39
0.143712 -1.140714 -2.874446 4.333194603576166e-39
0.144735 -1.139791 -2.894914 4.333194603576166e-39
0.146033 -1.140883 -2.920868 4.333194603576166e-39
0.147538 -1.143419 -2.950970 4.333194603576166e-39
0.148589 -1.142281 -2.972000 4.333194603576166e-39
0.149488 -1.139848 -2.989980 4.333194603576166e-39
0.150964 -1.141668 -3.019504 4.333194603576166e-39
0.152835 -1.146264 -3.056923 4.333194603576166e-39
0.154093 -1.146063 -3.082071 4.333194603576166e-39
0.155514 -1.146914 -3.110499 4.333194603576166e-39
0.156146 -1.141820 -3.123149 4.333194603576166e-39
0.157090 -1.138905 -3.142031 4.333194603576166e-39
0.159067 -1.143291 -3.181558 4.333194603576166e-39
0.160407 -1.142903 -3.208377 4.333194603576166e-39
0.162190 -1.145468 -3.244035 4.333194603576166e-39
0.160873 -1.126112 -3.217692 4.389633300525313e-39
0.159688 -1.107833 -3.193980 4.389633300525313e-39
0.160026 -1.100179 -3.200748 4.389633300525313e-39
0.159119 -1.084001 -3.182616 4.389633300525313e-39
0.159288 -1.075197 -3.185995 4.389633300525313e-39
0.160017 -1.070114 -3.200568 4.389633300525313e-39
0.160432 -1.062859 -3.208859 4.389633300525313e-39
0.160071 -1.050469 -3.201658 4.389633300525313e-39
0.160160 -1.041041 -3.203433 4.389633300525313e-39
0.160233 -1.031499 -3.204885 4.389633300525313e-39
0.160984 -1.026273 -3.219908 1.873467803567068e-38
0.160914 -1.015768 -3.218504 1.873467803567068e-38
0.161472 -1.009198 -3.229665 1.873467803567068e-38
0.161404 -0.998690 -3.228320 1.873467803567068e-38
0.159799 -0.978772 -3.196217 1.873467803567068e-38
0.160581 -0.973523 -3.211851 1.873467803567068e-38
0.160940 -0.965638 -3.219022 1.873467803567068e-38
0.160591 -0.953509 -3.212047 1.873467803567068e-38
0.161437 -0.948440 -3.228961 1.873467803567068e-38
0.161143 -0.936644 -3.223093 1.873467803567068e-38
0.160874 -0.925027 -3.217714 1.873467803567068e-38
0.160509 -0.912894 -3.210406 1.873467803567068e-38
0.160548 -0.903080 -3.211181 1.873467803567068e-38
0.159767 -0.888702 -3.195563 1.873467803567068e-38
0.160620 -0.883410 -3.212628 1.873467803567068e-38
0.160773 -0.874205 -3.215697 1.873467803567068e-38
0.160477 -0.862565 -3.209774 1.873467803567068e-38
0.160408 -0.852165 -3.208381 1.873467803567068e-38
0.161096 -0.845752 -3.222140 1.873467803567068e-38
0.160225 -0.831166 -3.204723 1.873467803567068e-38
0.159801 -0.818981 -3.196254 1.873467803567068e-38
0.159705 -0.808507 -3.194330 1.873467803567068e-38
0.160617 -0.803087 -3.212576 1.873467803567068e-38
0.159821 -0.789115 -3.196642 1.873467803567068e-38
0.159487 -0.777499 -3.189967 1.873467803567068e-38
0.159496 -0.767575 -3.190148 1.873467803567068e-38
0.159850 -0.759289 -3.197234 1.873467803567068e-38
0.159559 -0.747932 -3.191403 1.873467803567068e-38
0.159929 -0.739670 -3.198801 1.873467803567068e-38
0.159912 -0.729599 -3.198473 1.873467803567068e-38
0.159580 -0.718111 -3.191833 1.873467803567068e-38
0.158349 -0.702675 -3.167211 1.873467803567068e-38
0.158798 -0.694740 -3.176183 1.873467803567068e-38
0.158896 -0.685239 -3.178148 1.873467803567068e-38
0.157540 -0.669544 -3.151019 1.873467803567068e-38
0.157875 -0.661103 -3.157732 1.873467803567068e-38
0.158327 -0.653097 -3.166757 1.873467803567068e-38
0.158834 -0.645262 -3.176901 1.873467803567068e-38
0.158117 -0.632468 -3.162564 1.873467803567068e-38
0.157730 -0.621063 -3.154833 1.873467803567068e-38
0.157311 -0.609581 -3.146448 1.873467803567068e-38
0.157430 -0.600204 -3.148835 1.873467803567068e-38
0.156527 -0.586977 -3.130765 1.873467803567068e-38
0.157177 -0.579589 -3.143758 1.873467803567068e-38
0.157217 -0.569911 -3.144559 1.873467803567068e-38
0.157114 -0.559717 -3.142497 1.873467803567068e-38
0.156123 -0.546432 -3.122689 1.873467803567068e-38
0.155792 -0.535535 -3.116062 1.873467803567068e-38
0.155931 -0.526266 -3.118835 1.873467803567068e-38
0.156176 -0.517334 -3.123746 1.873467803567068e-38
0.156128 -0.507415 -3.122774 1.873467803567068e-38
0.155001 -0.494066 -3.100244 1.873467803567068e-38
0.155577 -0.486179 -3.111769 1.873467803567068e-38
0.155789 -0.477103 -3.115994 1.873467803567068e-38
0.155975 -0.467924 -3.119717 1.873467803567068e-38
0.155846 -0.457797 -3.117141 1.873467803567068e-38
0.155771 -0.447841 -3.115640 1.873467803567068e-38
0.155361 -0.436952 -3.107433 1.873467803567068e-38
0.155136 -0.426624 -3.102944 1.873467803567068e-38
0.155134 -0.416922 -3.102898 1.873467803567068e-38
0.154858 -0.406502 -3.097376 1.873467803567068e-38
0.155073 -0.397376 -3.101691 1.873467803567068e-38
0.154338 -0.385844 -3.086972 1.873467803567068e-38
0.155534 -0.379114 -3.110898 1.873467803567068e-38
0.153698 -0.365032 -3.074171 1.873467803567068e-38
0.154685 -0.357710 -3.093927 1.873467803567068e-38
0.154681 -0.348031 -3.093832 1.873467803567068e-38
0.153935 -0.336732 -3.078910 1.873467803567068e-38
0.154562 -0.328443 -3.091453 1.873467803567068e-38
0.154331 -0.318308 -3.086843 1.873467803567068e-38
0.153801 -0.307601 -3.076232 1.873467803567068e-38
0.154397 -0.299145 -3.088164 1.873467803567068e-38
0.152487 -0.285913 -3.049953 1.873467803567068e-38
0.153739 -0.278651 -3.074992 1.873467803567068e-38
0.153651 -0.268890 -3.073242 1.873467803567068e-38
0.153192 -0.258512 -3.064062 1.873467803567068e-38
0.154088 -0.250393 -3.081978 1.873467803567068e-38
0.153563 -0.239942 -3.071470 1.873467803567068e-38
0.153504 -0.230257 -3.070306 1.873467803567068e-38
0.153767 -0.221041 -3.075566 1.873467803567068e-38
0.153484 -0.211040 -3.069896 1.873467803567068e-38
0.153623 -0.201631 -3.072687 1.873467803567068e-38
0.154016 -0.192520 -3.080547 1.874089839955382e-38
0.155656 -0.184842 -3.113343 1.874089839955382e-38
0.154397 -0.173697 -3.088158 1.874089839955382e-38
0.153871 -0.163488 -3.077645 1.874089839955382e-38
0.154073 -0.154073 -3.081672 1.874089839955382e-38
0.155603 -0.145878 -3.112282 1.874089839955382e-38
0.154873 -0.135514 -3.097687 1.874089839955382e-38
0.154709 -0.125701 -3.094402 1.874089839955382e-38
0.154591 -0.115943 -3.092047 1.874089839955382e-38
0.154732 -0.106378 -3.094867 1.874089839955382e-38
0.154902 -0.096814 -3.098261 1.874089839955382e-38
0.155904 -0.087696 -3.118309 1.874089839955382e-38
0.155597 -0.077798 -3.112153 1.874089839955382e-38
0.156444 -0.068444 -3.129097 1.874089839955382e-38
0.155106 -0.058165 -3.102349 1.874089839955382e-38
0.156126 -0.048789 -3.122748 1.874089839955382e-38
0.155744 -0.038936 -3.115107 1.874089839955382e-38
0.155640 -0.029182 -3.113018 1.874089839955382e-38
0.156652 -0.019581 -3.133254 1.874089839955382e-38
0.155649 -0.009728 -3.113193 1.874089839955382e-38
0.155726 0.000000 -3.114746 1.874089839955382e-38
0.155930 0.009746 -3.118829 1.874089839955382e-38
0.156471 0.019559 -3.129650 1.874089839955382e-38
0.156758 0.029392 -3.135376 1.874089839955382e-38
0.156168 0.039042 -3.123580 1.874089839955382e-38
0.156403 0.048876 -3.128275 1.874089839955382e-38
0.155734 0.058400 -3.114905 1.874089839955382e-38
0.156333 0.068396 -3.126878 1.874089839955382e-38
0.156698 0.078349 -3.134180 1.874089839955382e-38
0.155434 0.087432 -3.108909 1.874089839955382e-38
0.155575 0.097234 -3.111716 1.874089839955382e-38
0.155524 0.106923 -3.110695 1.874089839955382e-38
0.154923 0.116192 -3.098682 1.874089839955382e-38
0.155360 0.126230 -3.107417 1.874089839955382e-38
0.155791 0.136317 -3.116048 1.874089839955382e-38
0.155656 0.145928 -3.113343 1.874089839955382e-38
0.154403 0.154403 -3.088275 1.874089839955382e-38
0.155583 0.165307 -3.111887 1.874089839955382e-38
0.155307 0.174720 -3.106362 1.874089839955382e-38
0.154294 0.183224 -3.086101 1.874089839955382e-38
0.154400 0.193000 -3.088228 1.874089839955382e-38
0.154660 0.202991 -3.093418 1.874089839955382e-38
0.154359 0.212243 -3.087391 1.874089839955382e-38
0.154229 0.221704 -3.084794 1.874089839955382e-38
0.154140 0.231210 -3.083027 1.874089839955382e-38
0.154135 0.240836 -3.082918 1.874089839955382e-38
0.154649 0.251305 -3.093202 1.874089839955382e-38
0.154929 0.261443 -3.098807 1.874089839955382e-38
0.154745 0.270804 -3.095122 1.874089839955382e-38
0.155011 0.280957 -3.100440 1.874089839955382e-38
0.154563 0.289805 -3.091477 1.874089839955382e-38
0.154412 0.299172 -3.088451 1.874089839955382e-38
0.154402 0.308803 -3.088251 1.874089839955382e-38
0.155154 0.320005 -3.103304 1.874089839955382e-38
0.154670 0.328674 -3.093626 1.874089839955382e-38
0.155394 0.339925 -3.108112 1.874089839955382e-38
0.155659 0.350232 -3.113399 1.874089839955382e-38
0.154972 0.358372 -3.099659 1.874089839955382e-38
0.155867 0.370184 -3.117565 1.874089839955382e-38
0.155839 0.379857 -3.117001 1.874089839955382e-38
0.156701 0.391753 -3.134247 1.874089839955382e-38
0.156986 0.402278 -3.139952 1.874089839955382e-38
0.156221 0.410079 -3.124637 1.874089839955382e-38
0.157542 0.423393 -3.151057 1.874089839955382e-38
0.158701 0.436428 -3.174251 1.874089839955382e-38
0.158526 0.445855 -3.170753 1.874089839955382e-38
0.159134 0.457510 -3.182904 1.874089839955382e-38
0.159663 0.469010 -3.193487 1.874089839955382e-38
0.243010 0.729031 -4.860555 1.880790849211783e-38
0.243599 0.746021 -4.872321 1.880790849211783e-38
0.243618 0.761305 -4.872700 1.880790849211783e-38
0.244148 0.778222 -4.883309 1.880790849211783e-38
0.244084 0.793273 -4.882026 1.880790849211783e-38
0.243795 0.807572 -4.876253 1.880790849211783e-38
0.244040 0.823634 -4.881140 1.880790849211783e-38
0.243178 0.835923 -4.863900 1.880790849211783e-38
0.243555 0.852443 -4.871451 1.880790849211783e-38
0.244211 0.870000 -4.884560 1.880790849211783e-38
0.244119 0.884931 -4.882726 1.880790849211783e-38
0.243406 0.897559 -4.868464 1.880790849211783e-38
0.244523 0.916962 -4.890811 1.880790849211783e-38
0.244219 0.931085 -4.884730 1.880790849211783e-38
0.243907 0.945139 -4.878487 1.880790849211783e-38
0.244088 0.961096 -4.882106 1.880790849211783e-38
0.243667 0.974667 -4.873681 1.880790849211783e-38
0.244306 0.992494 -4.886471 1.880790849211783e-38
