# .PCD v.7 - Exported by BlenSor
VERSION .7
FIELDS x y z rgb
SIZE 4 4 4 4
TYPE F F F F
COUNT 1 1 1 1
WIDTH 947
HEIGHT 1
VIEWPOINT 0 0 0 1 0 0 0
POINTS 947
DATA ascii
0.105206 0.239105 -3.060768 1.874089839955382e-38
0.104979 0.248133 -3.054165 1.874089839955382e-38
0.104584 0.256707 -3.042670 1.874089839955382e-38
0.105720 0.269106 -3.075712 1.874089839955382e-38
0.104833 0.276378 -3.049911 1.874089839955382e-38
0.104826 0.285889 -3.049703 1.874089839955382e-38
0.104710 0.295091 -3.046314 1.874089839955382e-38
0.105662 0.307381 -3.074032 1.874089839955382e-38
0.105035 0.315104 -3.055771 1.874089839955382e-38
0.105213 0.325203 -3.060950 1.874089839955382e-38
0.104756 0.333315 -3.047672 1.874089839955382e-38
0.105429 0.345042 -3.067256 1.874089839955382e-38
0.105016 0.353236 -3.055228 1.874089839955382e-38
0.104696 0.361676 -3.045908 1.874089839955382e-38
0.105133 0.372745 -3.058642 1.874089839955382e-38
0.104434 0.379759 -3.038293 1.874089839955382e-38
0.104854 0.390818 -3.050504 1.874089839955382e-38
0.105431 0.402555 -3.067307 1.874089839955382e-38
0.105507 0.412436 -3.069508 1.874089839955382e-38
0.106144 0.424577 -3.088055 1.874089839955382e-38
0.106115 0.434106 -3.087194 1.874089839955382e-38
0.106319 0.444606 -3.093133 1.874089839955382e-38
0.106317 0.454264 -3.093082 1.874089839955382e-38
0.106924 0.466580 -3.110753 1.874089839955382e-38
0.107708 0.479788 -3.133535 1.874089839955382e-38
0.107574 0.488973 -3.129652 1.874089839955382e-38
0.108584 0.503433 -3.159024 1.874089839955382e-38
0.167256 0.790665 -4.865977 1.880790849211783e-38
0.167972 0.809321 -4.886814 1.880790849211783e-38
0.167232 0.820958 -4.865283 1.880790849211783e-38
0.167047 0.835233 -4.859882 1.880790849211783e-38
0.168234 0.856466 -4.894439 1.880790849211783e-38
0.167806 0.869541 -4.881980 1.880790849211783e-38
0.167695 0.884212 -4.878757 1.880790849211783e-38
0.166355 0.892269 -4.839770 1.880790849211783e-38
0.167640 0.914399 -4.877145 1.880790849211783e-38
0.167839 0.930743 -4.882935 1.880790849211783e-38
0.167638 0.944867 -4.877084 1.880790849211783e-38
0.168011 0.962244 -4.887939 1.880790849211783e-38
0.167429 0.974131 -4.871004 1.880790849211783e-38
0.167855 0.991868 -4.883390 1.880790849211783e-38
0.167475 1.004852 -4.872359 1.880790849211783e-38
0.167824 1.022203 -4.882513 1.880790849211783e-38
0.167892 1.037878 -4.884480 1.880790849211783e-38
0.167900 1.053194 -4.884725 1.880790849211783e-38
0.167184 1.063895 -4.863868 1.880790849211783e-38
0.167399 1.080486 -4.870144 1.880790849211783e-38
0.167628 1.097200 -4.876794 1.880790849211783e-38
0.166975 1.108107 -4.857801 1.880790849211783e-38
0.167171 1.124602 -4.863490 1.880790849211783e-38
0.167636 1.142972 -4.877028 1.880790849211783e-38
0.167439 1.156851 -4.871299 1.880790849211783e-38
0.167310 1.171167 -4.867537 1.880790849211783e-38
0.168362 1.193840 -4.898152 1.880790849211783e-38
0.167486 1.202856 -4.872675 1.880790849211783e-38
0.167718 1.219767 -4.879416 1.880790849211783e-38
0.167249 1.231562 -4.865778 1.880790849211783e-38
0.167288 1.247056 -4.866906 1.880790849211783e-38
0.167469 1.263628 -4.872166 1.880790849211783e-38
0.167505 1.279132 -4.873231 1.880790849211783e-38
0.167941 1.297728 -4.885914 1.880790849211783e-38
0.167755 1.311543 -4.880507 1.880790849211783e-38
0.167323 1.323372 -4.867924 1.880790849211783e-38
0.167760 1.342080 -4.880641 1.880790849211783e-38
0.168054 1.359707 -4.889182 1.880790849211783e-38
0.168150 1.375772 -4.891984 1.880790849211783e-38
0.167512 1.385782 -4.873429 1.880790849211783e-38
0.167336 1.399541 -4.868317 1.880790849211783e-38
0.168283 1.422757 -4.895858 1.880790849211783e-38
0.167836 1.434234 -4.882846 1.880790849211783e-38
0.167186 1.443876 -4.863930 1.880790849211783e-38
0.168311 1.468896 -4.896670 1.880790849211783e-38
0.167249 1.474828 -4.865758 1.880790849211783e-38
0.167762 1.494611 -4.880711 1.880790849211783e-38
0.167515 1.507636 -4.873514 1.880790849211783e-38
0.167383 1.521663 -4.869670 1.880790849211783e-38
0.167793 1.540649 -4.881611 1.880790849211783e-38
0.166975 1.548313 -4.857800 1.880790849211783e-38
0.168189 1.574861 -4.893121 1.880790849211783e-38
0.168048 1.588813 -4.889006 1.880790849211783e-38
0.168015 1.603775 -4.888045 1.880790849211783e-38
0.167537 1.614450 -4.874157 1.880790849211783e-38
0.167738 1.631634 -4.880002 1.880790849211783e-38
0.167290 1.642484 -4.866966 1.880790849211783e-38
0.167848 1.663223 -4.883205 1.880790849211783e-38
0.168047 1.680468 -4.888984 1.880790849211783e-38
0.168188 1.697166 -4.893079 1.880790849211783e-38
0.168249 1.713082 -4.894869 1.880790849211783e-38
0.167677 1.722502 -4.878231 1.880790849211783e-38
0.167295 1.733781 -4.867102 1.880790849211783e-38
0.167479 1.750918 -4.872468 1.880790849211783e-38
0.167011 1.761211 -4.858860 1.880790849211783e-38
0.167097 1.777307 -4.861356 1.880790849211783e-38
0.167613 1.798030 -4.876362 1.880790849211783e-38
0.167156 1.808322 -4.863062 1.880790849211783e-38
0.167671 1.829141 -4.878057 1.880790849211783e-38
0.167845 1.846300 -4.883124 1.880790849211783e-38
0.168119 1.864591 -4.891078 1.880790849211783e-38
0.167786 1.876156 -4.881403 1.880790849211783e-38
0.167372 1.886741 -4.869358 1.880790849211783e-38
0.167564 1.904141 -4.874948 1.880790849211783e-38
0.167432 1.917854 -4.871089 1.880790849211783e-38
0.167839 1.937773 -4.882927 1.880790849211783e-38
0.107185 -1.143302 -2.858459 4.333194603576166e-39
0.108369 -1.146905 -2.890045 4.333194603576166e-39
0.108181 -1.135905 -2.885044 4.333194603576166e-39
0.109547 -1.141110 -2.921451 4.333194603576166e-39
0.110750 -1.144420 -2.953553 4.333194603576166e-39
0.111541 -1.143292 -2.974631 4.333194603576166e-39
0.112038 -1.139058 -2.987906 4.333194603576166e-39
0.113651 -1.145981 -3.030909 4.333194603576166e-39
0.114194 -1.141939 -3.045388 4.333194603576166e-39
0.115265 -1.143048 -3.073963 4.333194603576166e-39
0.116069 -1.141346 -3.095395 4.333194603576166e-39
0.117283 -1.143509 -3.127768 4.333194603576166e-39
0.118267 -1.143250 -3.154020 4.333194603576166e-39
0.119201 -1.142339 -3.178908 4.333194603576166e-39
0.120006 -1.140058 -3.200391 4.333194603576166e-39
0.120919 -1.138654 -3.224738 4.333194603576166e-39
0.122591 -1.144185 -3.269334 4.333194603576166e-39
0.123866 -1.145758 -3.303323 4.333194603576166e-39
0.124195 -1.138456 -3.312108 4.333194603576166e-39
0.125299 -1.138128 -3.341532 4.333194603576166e-39
0.126417 -1.137749 -3.371350 4.333194603576166e-39
0.128366 -1.144593 -3.423325 4.333194603576166e-39
0.129885 -1.147314 -3.463835 4.333194603576166e-39
0.130395 -1.140955 -3.477443 4.333194603576166e-39
0.131722 -1.141591 -3.512839 4.333194603576166e-39
0.133201 -1.143308 -3.552279 4.333194603576166e-39
0.134949 -1.147066 -3.598894 4.333194603576166e-39
0.135708 -1.142208 -3.619135 4.333194603576166e-39
0.137105 -1.142545 -3.656404 4.333194603576166e-39
0.138330 -1.141226 -3.689075 4.333194603576166e-39
0.139627 -1.140289 -3.723659 4.333194603576166e-39
0.141326 -1.142387 -3.768967 4.333194603576166e-39
0.142418 -1.139347 -3.798093 4.333194603576166e-39
0.144378 -1.142991 -3.850350 4.333194603576166e-39
0.145868 -1.142629 -3.890078 4.333194603576166e-39
0.147315 -1.141694 -3.928689 4.333194603576166e-39
0.148570 -1.139037 -3.962151 4.333194603576166e-39
0.150691 -1.142741 -4.018716 4.333194603576166e-39
0.152154 -1.141155 -4.057730 4.333194603576166e-39
0.154278 -1.144228 -4.114370 4.333194603576166e-39
0.155889 -1.143183 -4.157325 4.333194603576166e-39
0.157628 -1.142805 -4.203721 4.333194603576166e-39
0.158850 -1.138424 -4.236298 4.333194603576166e-39
0.160478 -1.136720 -4.279721 4.333194603576166e-39
0.163459 -1.144212 -4.359213 4.333194603576166e-39
0.164467 -1.137565 -4.386108 4.333194603576166e-39
0.167356 -1.143601 -4.463153 4.333194603576166e-39
0.121947 -0.823145 -3.252162 1.873467803567068e-38
0.121328 -0.808854 -3.235649 1.873467803567068e-38
0.121336 -0.798796 -3.235861 1.873467803567068e-38
0.121022 -0.786643 -3.227482 1.873467803567068e-38
0.120604 -0.773878 -3.216345 1.873467803567068e-38
0.120756 -0.764786 -3.220381 1.873467803567068e-38
0.121401 -0.758758 -3.237601 1.873467803567068e-38
0.120923 -0.745689 -3.224832 1.873467803567068e-38
0.120761 -0.734628 -3.220518 1.873467803567068e-38
0.120253 -0.721518 -3.206976 1.873467803567068e-38
0.119893 -0.709364 -3.197363 1.873467803567068e-38
0.119764 -0.698622 -3.193928 1.873467803567068e-38
0.119566 -0.687503 -3.188646 1.873467803567068e-38
0.119727 -0.678453 -3.192947 1.873467803567068e-38
0.119399 -0.666646 -3.184207 1.873467803567068e-38
0.119661 -0.658138 -3.191199 1.873467803567068e-38
0.119675 -0.648240 -3.191561 1.873467803567068e-38
0.119069 -0.635034 -3.175395 1.873467803567068e-38
0.118728 -0.623320 -3.166297 1.873467803567068e-38
0.118975 -0.614703 -3.172885 1.873467803567068e-38
0.118587 -0.602815 -3.162533 1.873467803567068e-38
0.118801 -0.594005 -3.168252 1.873467803567068e-38
0.118408 -0.582173 -3.157773 1.873467803567068e-38
0.117801 -0.569371 -3.141579 1.873467803567068e-38
0.117824 -0.559665 -3.142203 1.873467803567068e-38
0.117069 -0.546322 -3.122060 1.873467803567068e-38
0.117690 -0.539412 -3.138621 1.873467803567068e-38
0.117659 -0.529466 -3.137802 1.873467803567068e-38
0.117072 -0.517069 -3.122148 1.873467803567068e-38
0.116562 -0.505101 -3.108533 1.873467803567068e-38
0.117307 -0.498556 -3.128417 1.873467803567068e-38
0.117118 -0.487992 -3.123371 1.873467803567068e-38
0.115848 -0.473047 -3.089505 1.873467803567068e-38
0.116535 -0.466138 -3.107811 1.873467803567068e-38
0.116665 -0.456939 -3.111299 1.873467803567068e-38
0.117032 -0.448624 -3.121083 1.873467803567068e-38
0.116575 -0.437155 -3.108877 1.873467803567068e-38
0.116404 -0.426815 -3.104327 1.873467803567068e-38
0.115504 -0.413889 -3.080328 1.873467803567068e-38
0.115634 -0.404720 -3.083799 1.873467803567068e-38
0.116729 -0.398824 -3.112997 1.873467803567068e-38
0.115827 -0.386090 -3.088940 1.873467803567068e-38
0.115946 -0.376824 -3.092106 1.873467803567068e-38
0.116004 -0.367346 -3.093664 1.873467803567068e-38
0.115188 -0.355163 -3.071898 1.873467803567068e-38
0.115704 -0.347113 -3.085667 1.873467803567068e-38
0.115438 -0.336694 -3.078562 1.873467803567068e-38
0.115574 -0.327459 -3.082188 1.873467803567068e-38
0.115306 -0.317091 -3.075046 1.873467803567068e-38
0.115527 -0.308071 -3.080928 1.873467803567068e-38
0.115502 -0.298380 -3.080269 1.873467803567068e-38
0.114838 -0.287094 -3.062559 1.873467803567068e-38
0.115056 -0.278052 -3.068379 1.873467803567068e-38
0.114747 -0.267743 -3.060137 1.873467803567068e-38
0.115758 -0.260456 -3.087106 1.873467803567068e-38
0.114698 -0.248511 -3.058818 1.873467803567068e-38
0.114925 -0.239427 -3.064884 1.873467803567068e-38
0.115425 -0.230851 -3.078232 1.873467803567068e-38
0.114903 -0.220230 -3.064292 1.873467803567068e-38
0.115494 -0.211739 -3.080062 1.873467803567068e-38
0.115162 -0.201533 -3.071193 1.874089839955382e-38
0.114689 -0.191149 -3.058601 1.874089839955382e-38
0.115704 -0.183198 -3.085660 1.874089839955382e-38
0.114728 -0.172092 -3.059634 1.874089839955382e-38
0.115425 -0.163519 -3.078228 1.874089839955382e-38
0.114934 -0.153246 -3.065135 1.874089839955382e-38
0.115401 -0.144251 -3.077574 1.874089839955382e-38
0.114442 -0.133516 -3.052015 1.874089839955382e-38
0.114620 -0.124172 -3.056752 1.874089839955382e-38
0.115397 -0.115397 -3.077466 1.874089839955382e-38
0.115500 -0.105875 -3.080221 1.874089839955382e-38
0.115052 -0.095877 -3.068277 1.874089839955382e-38
0.114795 -0.086097 -3.061428 1.874089839955382e-38
0.115767 -0.077178 -3.087352 1.874089839955382e-38
0.114756 -0.066941 -3.060373 1.874089839955382e-38
0.114602 -0.057301 -3.056264 1.874089839955382e-38
0.115218 -0.048008 -3.072706 1.874089839955382e-38
0.115044 -0.038348 -3.068069 1.874089839955382e-38
0.115001 -0.028750 -3.066911 1.874089839955382e-38
0.114842 -0.019140 -3.062682 1.874089839955382e-38
0.114735 -0.009561 -3.059818 1.874089839955382e-38
0.115460 0.000000 -3.079161 1.874089839955382e-38
0.114965 0.009580 -3.065950 1.874089839955382e-38
0.115627 0.019271 -3.083598 1.874089839955382e-38
0.114343 0.028586 -3.049362 1.874089839955382e-38
0.115018 0.038339 -3.067379 1.874089839955382e-38
0.115491 0.048121 -3.079985 1.874089839955382e-38
0.115070 0.057535 -3.068741 1.874089839955382e-38
0.115218 0.067210 -3.072690 1.874089839955382e-38
0.114773 0.076515 -3.060820 1.874089839955382e-38
0.114871 0.086153 -3.063453 1.874089839955382e-38
0.114842 0.095702 -3.062670 1.874089839955382e-38
0.115436 0.105816 -3.078513 1.874089839955382e-38
0.114753 0.114753 -3.060286 1.874089839955382e-38
0.114759 0.124322 -3.060460 1.874089839955382e-38
0.114348 0.133406 -3.049505 1.874089839955382e-38
0.114593 0.143241 -3.056028 1.874089839955382e-38
0.114464 0.152618 -3.052584 1.874089839955382e-38
0.114979 0.162887 -3.066326 1.874089839955382e-38
0.114277 0.171415 -3.047598 1.874089839955382e-38
0.115121 0.182274 -3.070101 1.874089839955382e-38
0.114568 0.190946 -3.055358 1.874089839955382e-38
0.115216 0.201628 -3.072650 1.874089839955382e-38
0.115485 0.211723 -3.079831 1.874089839955382e-38
0.114716 0.219872 -3.059306 1.874089839955382e-38
0.114471 0.228942 -3.052771 1.874089839955382e-38
0.114652 0.238858 -3.057595 1.874089839955382e-38
0.114824 0.248784 -3.062181 1.874089839955382e-38
0.115312 0.259452 -3.075207 1.874089839955382e-38
0.115366 0.269187 -3.076642 1.874089839955382e-38
0.114462 0.276617 -3.052541 1.874089839955382e-38
0.113948 0.284871 -3.038836 1.874089839955382e-38
0.114445 0.295649 -3.052082 1.874089839955382e-38
0.114648 0.305727 -3.057487 1.874089839955382e-38
0.114365 0.314504 -3.049955 1.874089839955382e-38
0.114811 0.325297 -3.061840 1.874089839955382e-38
0.114410 0.333694 -3.051138 1.874089839955382e-38
0.114269 0.342807 -3.047388 1.874089839955382e-38
0.114437 0.352846 -3.051859 1.874089839955382e-38
0.115010 0.364198 -3.067153 1.874089839955382e-38
0.114366 0.371689 -3.049970 1.874089839955382e-38
0.115064 0.383548 -3.068604 1.874089839955382e-38
0.115335 0.394060 -3.075808 1.874089839955382e-38
0.115313 0.403595 -3.075232 1.874089839955382e-38
0.115278 0.413079 -3.074295 1.874089839955382e-38
0.115939 0.425110 -3.091927 1.874089839955382e-38
0.115002 0.431257 -3.066933 1.874089839955382e-38
0.115846 0.444076 -3.089448 1.874089839955382e-38
0.115810 0.453589 -3.088486 1.874089839955382e-38
0.116418 0.465673 -3.104707 1.874089839955382e-38
0.116548 0.475905 -3.108174 1.874089839955382e-38
0.117204 0.488351 -3.125669 1.874089839955382e-38
0.183072 0.778058 -4.882281 1.880790849211783e-38
0.182954 0.792801 -4.879124 1.880790849211783e-38
0.182902 0.807819 -4.877746 1.880790849211783e-38
0.183079 0.823854 -4.882445 1.880790849211783e-38
0.182665 0.837214 -4.871409 1.880790849211783e-38
0.182521 0.851765 -4.867574 1.880790849211783e-38
0.182933 0.868933 -4.878568 1.880790849211783e-38
0.183060 0.884790 -4.881946 1.880790849211783e-38
0.182705 0.898300 -4.872481 1.880790849211783e-38
0.182908 0.914539 -4.877891 1.880790849211783e-38
0.182680 0.928622 -4.871806 1.880790849211783e-38
0.182588 0.943373 -4.869368 1.880790849211783e-38
0.182732 0.959342 -4.873195 1.880790849211783e-38
0.183100 0.976536 -4.883028 1.880790849211783e-38
0.183004 0.991273 -4.880461 1.880790849211783e-38
0.183130 1.007213 -4.883803 1.880790849211783e-38
0.182273 1.017688 -4.860948 1.880790849211783e-38
0.183515 1.039917 -4.894074 1.880790849211783e-38
0.182778 1.050972 -4.874418 1.880790849211783e-38
0.182870 1.066742 -4.876882 1.880790849211783e-38
0.182963 1.082530 -4.879357 1.880790849211783e-38
0.182941 1.097645 -4.878772 1.880790849211783e-38
0.182755 1.111763 -4.873827 1.880790849211783e-38
0.183122 1.129255 -4.883615 1.880790849211783e-38
0.183111 1.144443 -4.883304 1.880790849211783e-38
0.182874 1.158203 -4.876993 1.880790849211783e-38
0.182537 1.171280 -4.868003 1.880790849211783e-38
0.182680 1.187420 -4.871814 1.880790849211783e-38
0.182986 1.204658 -4.879975 1.880790849211783e-38
0.182818 1.218788 -4.875498 1.880790849211783e-38
0.182576 1.232387 -4.869036 1.880790849211783e-38
0.182244 1.245332 -4.860181 1.880790849211783e-38
0.182781 1.264233 -4.874499 1.880790849211783e-38
0.183010 1.281069 -4.880613 1.880790849211783e-38
0.182129 1.290077 -4.857108 1.880790849211783e-38
0.182624 1.308809 -4.870333 1.880790849211783e-38
0.183039 1.327029 -4.881377 1.880790849211783e-38
0.183186 1.343365 -4.885314 1.880790849211783e-38
0.182161 1.351024 -4.857960 1.880790849211783e-38
0.182740 1.370551 -4.873418 1.880790849211783e-38
0.182679 1.385312 -4.871775 1.880790849211783e-38
0.183245 1.404878 -4.886879 1.880790849211783e-38
0.183115 1.419139 -4.883407 1.880790849211783e-38
0.183414 1.436745 -4.891394 1.880790849211783e-38
0.182955 1.448398 -4.879161 1.880790849211783e-38
0.182611 1.460890 -4.869981 1.880790849211783e-38
0.182579 1.475845 -4.869114 1.880790849211783e-38
0.182797 1.492841 -4.874930 1.880790849211783e-38
0.182627 1.506672 -4.870397 1.880790849211783e-38
0.182982 1.524850 -4.879869 1.880790849211783e-38
0.182621 1.537060 -4.870240 1.880790849211783e-38
0.181895 1.546110 -4.850886 1.880790849211783e-38
0.182493 1.566394 -4.866815 1.880790849211783e-38
0.182629 1.582787 -4.870462 1.880790849211783e-38
0.183033 1.601542 -4.881238 1.880790849211783e-38
0.182317 1.610464 -4.862126 1.880790849211783e-38
0.183259 1.634059 -4.887255 1.880790849211783e-38
0.182393 1.641540 -4.864170 1.880790849211783e-38
0.182540 1.658073 -4.868084 1.880790849211783e-38
0.183568 1.682706 -4.895494 1.880790849211783e-38
0.182811 1.691006 -4.875319 1.880790849211783e-38
0.183441 1.712113 -4.892101 1.880790849211783e-38
0.183282 1.725908 -4.887877 1.880790849211783e-38
0.182505 1.733801 -4.867157 1.880790849211783e-38
0.182580 1.749721 -4.869136 1.880790849211783e-38
0.183245 1.771368 -4.886881 1.880790849211783e-38
0.182387 1.778273 -4.864000 1.880790849211783e-38
0.182596 1.795526 -4.869570 1.880790849211783e-38
0.182547 1.810254 -4.868258 1.880790849211783e-38
0.182396 1.823959 -4.864238 1.880790849211783e-38
0.183391 1.849195 -4.890782 1.880790849211783e-38
0.182495 1.855361 -4.866869 1.880790849211783e-38
0.183254 1.878352 -4.887117 1.880790849211783e-38
0.183054 1.891563 -4.881800 1.880790849211783e-38
0.183210 1.908441 -4.885958 1.880790849211783e-38
0.182248 1.913601 -4.860286 1.880790849211783e-38
0.182869 1.935368 -4.876867 1.880790849211783e-38
0.115861 -1.140790 -2.852178 4.333194603576166e-39
0.116800 -1.141050 -2.875292 4.333194603576166e-39
0.117504 -1.138881 -2.892602 4.333194603576166e-39
0.118869 -1.142976 -2.926227 4.333194603576166e-39
0.118598 -1.131240 -2.919537 4.333194603576166e-39
0.121251 -1.147218 -2.984844 4.333194603576166e-39
0.120824 -1.133882 -2.974329 4.333194603576166e-39
0.122873 -1.143667 -3.024789 4.333194603576166e-39
0.123286 -1.138026 -3.034954 4.333194603576166e-39
0.124254 -1.137401 -3.058776 4.333194603576166e-39
0.124752 -1.132367 -3.071045 4.333194603576166e-39
0.126638 -1.139745 -3.117473 4.333194603576166e-39
0.128516 -1.146754 -3.163684 4.333194603576166e-39
0.129067 -1.141743 -3.177252 4.333194603576166e-39
0.129939 -1.139469 -3.198738 4.333194603576166e-39
0.131992 -1.147318 -3.249273 4.333194603576166e-39
0.132694 -1.143208 -3.266541 4.333194603576166e-39
0.133923 -1.143496 -3.296801 4.333194603576166e-39
0.134567 -1.138641 -3.312646 4.333194603576166e-39
0.136020 -1.140477 -3.348428 4.333194603576166e-39
0.137107 -1.139044 -3.375187 4.333194603576166e-39
0.138689 -1.141520 -3.414135 4.333194603576166e-39
0.140248 -1.143562 -3.452509 4.333194603576166e-39
0.141252 -1.140885 -3.477230 4.333194603576166e-39
0.142761 -1.142084 -3.514355 4.333194603576166e-39
0.144056 -1.141368 -3.546251 4.333194603576166e-39
0.145555 -1.142050 -3.583157 4.333194603576166e-39
0.147051 -1.142473 -3.619976 4.333194603576166e-39
0.148718 -1.143988 -3.661021 4.333194603576166e-39
0.150061 -1.142775 -3.694082 4.333194603576166e-39
0.150845 -1.137136 -3.713361 4.333194603576166e-39
0.152594 -1.138583 -3.756419 4.333194603576166e-39
0.154440 -1.140478 -3.801865 4.333194603576166e-39
0.156519 -1.143795 -3.853059 4.333194603576166e-39
0.157853 -1.141401 -3.885896 4.333194603576166e-39
0.159210 -1.138966 -3.919303 4.333194603576166e-39
0.161073 -1.139898 -3.965145 4.333194603576166e-39
0.162423 -1.136959 -3.998382 4.333194603576166e-39
0.164220 -1.136909 -4.042631 4.333194603576166e-39
0.166752 -1.141607 -4.104946 4.333194603576166e-39
0.168204 -1.138615 -4.140713 4.333194603576166e-39
0.170845 -1.143349 -4.205721 4.333194603576166e-39
0.173189 -1.145710 -4.263411 4.333194603576166e-39
0.132380 -0.865560 -3.258810 1.873467803567068e-38
0.131343 -0.848677 -3.233284 1.873467803567068e-38
0.131259 -0.838039 -3.231223 1.873467803567068e-38
0.131357 -0.828559 -3.233632 1.873467803567068e-38
0.130954 -0.815944 -3.223714 1.873467803567068e-38
0.130835 -0.805140 -3.220789 1.873467803567068e-38
0.130267 -0.791625 -3.206813 1.873467803567068e-38
0.130227 -0.781362 -3.205817 1.873467803567068e-38
0.130351 -0.772080 -3.208875 1.873467803567068e-38
0.131292 -0.767552 -3.232028 1.873467803567068e-38
0.130238 -0.751372 -3.206084 1.873467803567068e-38
0.130150 -0.740855 -3.203927 1.873467803567068e-38
0.129678 -0.728193 -3.192309 1.873467803567068e-38
0.129780 -0.718780 -3.194805 1.873467803567068e-38
0.129260 -0.705957 -3.182007 1.873467803567068e-38
0.129800 -0.698923 -3.195307 1.873467803567068e-38
0.129320 -0.686391 -3.183490 1.873467803567068e-38
0.129122 -0.675407 -3.178611 1.873467803567068e-38
0.130043 -0.670220 -3.201279 1.873467803567068e-38
0.128607 -0.652928 -3.165937 1.873467803567068e-38
0.128522 -0.642610 -3.163845 1.873467803567068e-38
0.128515 -0.632689 -3.163670 1.873467803567068e-38
0.128958 -0.624951 -3.174582 1.873467803567068e-38
0.128521 -0.612945 -3.163815 1.873467803567068e-38
0.128360 -0.602303 -3.159849 1.873467803567068e-38
0.128518 -0.593161 -3.163749 1.873467803567068e-38
0.127455 -0.578450 -3.137579 1.873467803567068e-38
0.127155 -0.567308 -3.130200 1.873467803567068e-38
0.127577 -0.559376 -3.140579 1.873467803567068e-38
0.127221 -0.548027 -3.131808 1.873467803567068e-38
0.127599 -0.539840 -3.141113 1.873467803567068e-38
0.126985 -0.527474 -3.125997 1.873467803567068e-38
0.127106 -0.518200 -3.128977 1.873467803567068e-38
0.125879 -0.503515 -3.098774 1.873467803567068e-38
0.126551 -0.496468 -3.115316 1.873467803567068e-38
0.126216 -0.485444 -3.107065 1.873467803567068e-38
0.126015 -0.474979 -3.102125 1.873467803567068e-38
0.125825 -0.464584 -3.097450 1.873467803567068e-38
0.125988 -0.455497 -3.101475 1.873467803567068e-38
0.126148 -0.446369 -3.105395 1.873467803567068e-38
0.125396 -0.434064 -3.086897 1.873467803567068e-38
0.126212 -0.427180 -3.106985 1.873467803567068e-38
0.125296 -0.414441 -3.084435 1.873467803567068e-38
0.125718 -0.406166 -3.094823 1.873467803567068e-38
0.124890 -0.393885 -3.074443 1.873467803567068e-38
0.125629 -0.386549 -3.092615 1.873467803567068e-38
0.125615 -0.376845 -3.092284 1.873467803567068e-38
0.125578 -0.367073 -3.091360 1.873467803567068e-38
0.125809 -0.358071 -3.097054 1.873467803567068e-38
0.124567 -0.344956 -3.066495 1.873467803567068e-38
0.124107 -0.334133 -3.055148 1.873467803567068e-38
0.124929 -0.326737 -3.075391 1.873467803567068e-38
0.125067 -0.317478 -3.078793 1.873467803567068e-38
0.125030 -0.307767 -3.077889 1.873467803567068e-38
0.124667 -0.297283 -3.068944 1.873467803567068e-38
0.125205 -0.288934 -3.082178 1.873467803567068e-38
0.125100 -0.279069 -3.079607 1.873467803567068e-38
0.125085 -0.269415 -3.079247 1.873467803567068e-38
0.125311 -0.260261 -3.084799 1.873467803567068e-38
0.125406 -0.250812 -3.087137 1.873467803567068e-38
0.125081 -0.240539 -3.079124 1.873467803567068e-38
0.125410 -0.231526 -3.087236 1.873467803567068e-38
0.124807 -0.220812 -3.072382 1.873467803567068e-38
0.125135 -0.211767 -3.080465 1.873467803567068e-38
0.125239 -0.202309 -3.083027 1.874089839955382e-38
0.124325 -0.191269 -3.060518 1.874089839955382e-38
0.124854 -0.182479 -3.073552 1.874089839955382e-38
0.125196 -0.173349 -3.081976 1.874089839955382e-38
0.125035 -0.163508 -3.078008 1.874089839955382e-38
0.125095 -0.153962 -3.079469 1.874089839955382e-38
0.125275 -0.144548 -3.083911 1.874089839955382e-38
0.125265 -0.134901 -3.083672 1.874089839955382e-38
0.126109 -0.126109 -3.104450 1.874089839955382e-38
0.125201 -0.115570 -3.082093 1.874089839955382e-38
0.125133 -0.105882 -3.080419 1.874089839955382e-38
0.125041 -0.096185 -3.078140 1.874089839955382e-38
0.125452 -0.086851 -3.088274 1.874089839955382e-38
0.124728 -0.076756 -3.070445 1.874089839955382e-38
0.125011 -0.067314 -3.077419 1.874089839955382e-38
0.124798 -0.057599 -3.072160 1.874089839955382e-38
0.125413 -0.048236 -3.087321 1.874089839955382e-38
0.124423 -0.038284 -3.062938 1.874089839955382e-38
0.124736 -0.028785 -3.070653 1.874089839955382e-38
0.125457 -0.019301 -3.088401 1.874089839955382e-38
0.125081 -0.009622 -3.079139 1.874089839955382e-38
0.125255 0.000000 -3.083429 1.874089839955382e-38
0.125316 0.009640 -3.084934 1.874089839955382e-38
0.124831 0.019205 -3.072976 1.874089839955382e-38
0.125381 0.028934 -3.086510 1.874089839955382e-38
0.124948 0.038446 -3.075868 1.874089839955382e-38
0.124885 0.048033 -3.074302 1.874089839955382e-38
0.124978 0.057682 -3.076596 1.874089839955382e-38
0.125171 0.067400 -3.081363 1.874089839955382e-38
0.124860 0.076837 -3.073694 1.874089839955382e-38
0.124932 0.086491 -3.075468 1.874089839955382e-38
0.124673 0.095903 -3.069100 1.874089839955382e-38
0.124931 0.105711 -3.075443 1.874089839955382e-38
0.125652 0.115986 -3.093182 1.874089839955382e-38
0.124941 0.124941 -3.075695 1.874089839955382e-38
0.124366 0.133933 -3.061543 1.874089839955382e-38
0.124791 0.143989 -3.071993 1.874089839955382e-38
0.124548 0.153290 -3.066015 1.874089839955382e-38
0.124738 0.163120 -3.070705 1.874089839955382e-38
0.125195 0.173347 -3.081943 1.874089839955382e-38
0.124717 0.182279 -3.070185 1.874089839955382e-38
0.124714 0.191868 -3.070104 1.874089839955382e-38
0.124890 0.201745 -3.074427 1.874089839955382e-38
0.124408 0.210537 -3.062578 1.874089839955382e-38
0.125256 0.221606 -3.083436 1.874089839955382e-38
0.125565 0.231812 -3.091043 1.874089839955382e-38
0.125042 0.240464 -3.078166 1.874089839955382e-38
0.125205 0.250411 -3.082198 1.874089839955382e-38
0.124944 0.259500 -3.075774 1.874089839955382e-38
0.124671 0.268522 -3.069037 1.874089839955382e-38
0.125234 0.279368 -3.082900 1.874089839955382e-38
0.125345 0.289257 -3.085624 1.874089839955382e-38
0.124263 0.296320 -3.059006 1.874089839955382e-38
0.125062 0.307845 -3.078668 1.874089839955382e-38
0.124604 0.316302 -3.067390 1.874089839955382e-38
0.125292 0.327687 -3.084333 1.874089839955382e-38
0.124737 0.335831 -3.070671 1.874089839955382e-38
0.123974 0.343314 -3.051895 1.874089839955382e-38
0.125343 0.356744 -3.085577 1.874089839955382e-38
0.124706 0.364525 -3.069903 1.874089839955382e-38
0.125271 0.375812 -3.083806 1.874089839955382e-38
0.124759 0.383874 -3.071210 1.874089839955382e-38
0.125147 0.394694 -3.080757 1.874089839955382e-38
0.125077 0.404095 -3.079037 1.874089839955382e-38
0.124757 0.412659 -3.071168 1.874089839955382e-38
0.126509 0.428186 -3.114300 1.874089839955382e-38
0.125037 0.432821 -3.078055 1.874089839955382e-38
0.125717 0.444845 -3.094796 1.874089839955382e-38
0.126118 0.455965 -3.104661 1.874089839955382e-38
0.126378 0.466627 -3.111068 1.874089839955382e-38
0.127415 0.480256 -3.136586 1.874089839955382e-38
0.128133 0.492818 -3.154261 1.874089839955382e-38
0.198101 0.777166 -4.876686 1.880790849211783e-38
0.197516 0.790065 -4.862283 1.880790849211783e-38
0.198342 0.808624 -4.882606 1.880790849211783e-38
0.197490 0.820344 -4.861642 1.880790849211783e-38
0.197686 0.836362 -4.866455 1.880790849211783e-38
0.197683 0.851558 -4.866393 1.880790849211783e-38
0.198588 0.870733 -4.888674 1.880790849211783e-38
0.197898 0.882931 -4.871693 1.880790849211783e-38
0.198323 0.900079 -4.882133 1.880790849211783e-38
0.198292 0.915193 -4.881376 1.880790849211783e-38
0.197864 0.928438 -4.870844 1.880790849211783e-38
0.197960 0.944115 -4.873199 1.880790849211783e-38
0.198692 0.962891 -4.891222 1.880790849211783e-38
0.198357 0.976529 -4.882993 1.880790849211783e-38
0.198234 0.991169 -4.879951 1.880790849211783e-38
0.197963 1.005043 -4.873283 1.880790849211783e-38
0.197984 1.020378 -4.873794 1.880790849211783e-38
0.197870 1.035013 -4.870997 1.880790849211783e-38
0.197555 1.048564 -4.863251 1.880790849211783e-38
0.198180 1.067126 -4.878637 1.880790849211783e-38
0.197362 1.077903 -4.858500 1.880790849211783e-38
0.197993 1.096578 -4.874028 1.880790849211783e-38
0.197851 1.111011 -4.870534 1.880790849211783e-38
0.198437 1.129562 -4.884943 1.880790849211783e-38
0.197368 1.138662 -4.858637 1.880790849211783e-38
0.198144 1.158381 -4.877743 1.880790849211783e-38
0.198330 1.174726 -4.882329 1.880790849211783e-38
0.199146 1.194876 -4.902404 1.880790849211783e-38
0.198446 1.205939 -4.885163 1.880790849211783e-38
0.198791 1.223329 -4.893666 1.880790849211783e-38
0.197400 1.229957 -4.859435 1.880790849211783e-38
0.198080 1.249427 -4.876159 1.880790849211783e-38
0.198149 1.265107 -4.877868 1.880790849211783e-38
0.197300 1.274861 -4.856961 1.880790849211783e-38
0.197851 1.293640 -4.870520 1.880790849211783e-38
0.197854 1.308877 -4.870588 1.880790849211783e-38
0.198698 1.329750 -4.891382 1.880790849211783e-38
0.197873 1.339445 -4.871057 1.880790849211783e-38
0.198048 1.355864 -4.875366 1.880790849211783e-38
0.198121 1.371605 -4.877167 1.880790849211783e-38
0.197827 1.384790 -4.869939 1.880790849211783e-38
0.198558 1.405182 -4.887938 1.880790849211783e-38
0.198797 1.422161 -4.893808 1.880790849211783e-38
0.198456 1.434992 -4.885429 1.880790849211783e-38
0.198355 1.449515 -4.882925 1.880790849211783e-38
0.198498 1.465834 -4.886462 1.880790849211783e-38
0.198741 1.482913 -4.892433 1.880790849211783e-38
0.198139 1.493665 -4.877621 1.880790849211783e-38
0.197425 1.503468 -4.860040 1.880790849211783e-38
0.197743 1.521096 -4.867856 1.880790849211783e-38
0.197817 1.536882 -4.869677 1.880790849211783e-38
0.199049 1.561770 -4.900020 1.880790849211783e-38
0.198264 1.570860 -4.880690 1.880790849211783e-38
0.198950 1.591602 -4.897587 1.880790849211783e-38
0.198383 1.602325 -4.883625 1.880790849211783e-38
0.198672 1.619939 -4.890729 1.880790849211783e-38
0.198198 1.631318 -4.879056 1.880790849211783e-38
0.198432 1.648508 -4.884816 1.880790849211783e-38
0.198562 1.664870 -4.888041 1.880790849211783e-38
0.197922 1.674725 -4.872274 1.880790849211783e-38
0.197342 1.684996 -4.857993 1.880790849211783e-38
0.199002 1.714481 -4.898866 1.880790849211783e-38
0.198747 1.727573 -4.892591 1.880790849211783e-38
0.198236 1.738377 -4.880003 1.880790849211783e-38
0.198253 1.753775 -4.880418 1.880790849211783e-38
0.197802 1.765005 -4.869326 1.880790849211783e-38
0.198025 1.782225 -4.874809 1.880790849211783e-38
0.197926 1.796562 -4.872379 1.880790849211783e-38
0.198639 1.818310 -4.889923 1.880790849211783e-38
0.198059 1.828233 -4.875635 1.880790849211783e-38
0.198243 1.845182 -4.880168 1.880790849211783e-38
0.197886 1.857087 -4.871396 1.880790849211783e-38
0.197856 1.872018 -4.870639 1.880790849211783e-38
0.198604 1.894379 -4.889070 1.880790849211783e-38
0.198854 1.912061 -4.895227 1.880790849211783e-38
0.197886 1.917968 -4.871378 1.880790849211783e-38
0.198537 1.939558 -4.887424 1.880790849211783e-38
0.124568 -1.138908 -2.847474 4.333194603576166e-39
0.125912 -1.142205 -2.878201 4.333194603576166e-39
0.126445 -1.138002 -2.890370 4.333194603576166e-39
0.127506 -1.138442 -2.914619 4.333194603576166e-39
0.128383 -1.137108 -2.934682 4.333194603576166e-39
0.129233 -1.135406 -2.954112 4.333194603576166e-39
0.130388 -1.136237 -2.980507 4.333194603576166e-39
0.132158 -1.142226 -3.020980 4.333194603576166e-39
0.133871 -1.147465 -3.060125 4.333194603576166e-39
0.134305 -1.141594 -3.070051 4.333194603576166e-39
0.135254 -1.139995 -3.091733 4.333194603576166e-39
0.137230 -1.146850 -3.136908 4.333194603576166e-39
0.138100 -1.144257 -3.156796 4.333194603576166e-39
0.138899 -1.140954 -3.175055 4.333194603576166e-39
0.140347 -1.142828 -3.208167 4.333194603576166e-39
0.141478 -1.141926 -3.234004 4.333194603576166e-39
0.142386 -1.139091 -3.254778 4.333194603576166e-39
0.143481 -1.137595 -3.279788 4.333194603576166e-39
0.145199 -1.140846 -3.319062 4.333194603576166e-39
0.146629 -1.141613 -3.351764 4.333194603576166e-39
0.147696 -1.139372 -3.376159 4.333194603576166e-39
0.149721 -1.144296 -3.422439 4.333194603576166e-39
0.150875 -1.142338 -3.448813 4.333194603576166e-39
0.152121 -1.140910 -3.477308 4.333194603576166e-39
0.153765 -1.142252 -3.514873 4.333194603576166e-39
0.154878 -1.139459 -3.540320 4.333194603576166e-39
0.156762 -1.142126 -3.583396 4.333194603576166e-39
0.157813 -1.138507 -3.607409 4.333194603576166e-39
0.160411 -1.145792 -3.666795 4.333194603576166e-39
0.161065 -1.138962 -3.681757 4.333194603576166e-39
0.163042 -1.141294 -3.726938 4.333194603576166e-39
0.164991 -1.143149 -3.771482 4.333194603576166e-39
0.166363 -1.140774 -3.802851 4.333194603576166e-39
0.167545 -1.136910 -3.829865 4.333194603576166e-39
0.169897 -1.140740 -3.883647 4.333194603576166e-39
0.171493 -1.139201 -3.920110 4.333194603576166e-39
0.173931 -1.142973 -3.975841 4.333194603576166e-39
0.176053 -1.144343 -4.024349 4.333194603576166e-39
0.141658 -0.910656 -3.238119 1.873467803567068e-38
0.141367 -0.898693 -3.231486 1.873467803567068e-38
0.141391 -0.888741 -3.232015 1.873467803567068e-38
0.141134 -0.877047 -3.226150 1.873467803567068e-38
0.141816 -0.871157 -3.241744 1.873467803567068e-38
0.140704 -0.854274 -3.216319 1.873467803567068e-38
0.140737 -0.844423 -3.217079 1.873467803567068e-38
0.140761 -0.834512 -3.217626 1.873467803567068e-38
0.139766 -0.818632 -3.194890 1.873467803567068e-38
0.140901 -0.815213 -3.220825 1.873467803567068e-38
0.140806 -0.804607 -3.218657 1.873467803567068e-38
0.140072 -0.790409 -3.201885 1.873467803567068e-38
0.140184 -0.781026 -3.204440 1.873467803567068e-38
0.140081 -0.770443 -3.202070 1.873467803567068e-38
0.140075 -0.760406 -3.201937 1.873467803567068e-38
0.140207 -0.751108 -3.204956 1.873467803567068e-38
0.139576 -0.737758 -3.190533 1.873467803567068e-38
0.139512 -0.727454 -3.189069 1.873467803567068e-38
0.139607 -0.717980 -3.191250 1.873467803567068e-38
0.139492 -0.707422 -3.188610 1.873467803567068e-38
0.139526 -0.697632 -3.189403 1.873467803567068e-38
0.139577 -0.687916 -3.190562 1.873467803567068e-38
0.138850 -0.674413 -3.173937 1.873467803567068e-38
0.139006 -0.665242 -3.177504 1.873467803567068e-38
0.139079 -0.655657 -3.179171 1.873467803567068e-38
0.139071 -0.645688 -3.178998 1.873467803567068e-38
0.138647 -0.633816 -3.169304 1.873467803567068e-38
0.137986 -0.620938 -3.154194 1.873467803567068e-38
0.138218 -0.612108 -3.159491 1.873467803567068e-38
0.137949 -0.601062 -3.153336 1.873467803567068e-38
0.137600 -0.589715 -3.145372 1.873467803567068e-38
0.137377 -0.578944 -3.140261 1.873467803567068e-38
0.136907 -0.567186 -3.129525 1.873467803567068e-38
0.137475 -0.559721 -3.142517 1.873467803567068e-38
0.136429 -0.545716 -3.118599 1.873467803567068e-38
0.136248 -0.535259 -3.114458 1.873467803567068e-38
0.136629 -0.526999 -3.123178 1.873467803567068e-38
0.136478 -0.516668 -3.119725 1.873467803567068e-38
0.136505 -0.507019 -3.120342 1.873467803567068e-38
0.136601 -0.497620 -3.122541 1.873467803567068e-38
0.137018 -0.489349 -3.132055 1.873467803567068e-38
0.136124 -0.476435 -3.111635 1.873467803567068e-38
0.135060 -0.463063 -3.087305 1.873467803567068e-38
0.135528 -0.454988 -3.098014 1.873467803567068e-38
0.135750 -0.446036 -3.103082 1.873467803567068e-38
0.135633 -0.435963 -3.100406 1.873467803567068e-38
0.135632 -0.426272 -3.100383 1.873467803567068e-38
0.134945 -0.414474 -3.084675 1.873467803567068e-38
0.134982 -0.404945 -3.085515 1.873467803567068e-38
0.135396 -0.396517 -3.094987 1.873467803567068e-38
0.135133 -0.386093 -3.088967 1.873467803567068e-38
0.134865 -0.375696 -3.082857 1.873467803567068e-38
0.135051 -0.366568 -3.087110 1.873467803567068e-38
0.135418 -0.357890 -3.095487 1.873467803567068e-38
0.134905 -0.346899 -3.083768 1.873467803567068e-38
0.134264 -0.335659 -3.069100 1.873467803567068e-38
0.134580 -0.326837 -3.076329 1.873467803567068e-38
0.134832 -0.317819 -3.082098 1.873467803567068e-38
0.134103 -0.306520 -3.065421 1.873467803567068e-38
0.134787 -0.298456 -3.081058 1.873467803567068e-38
0.134969 -0.289219 -3.085224 1.873467803567068e-38
0.133777 -0.277109 -3.057975 1.873467803567068e-38
0.135156 -0.270312 -3.089506 1.873467803567068e-38
0.133679 -0.257810 -3.055739 1.873467803567068e-38
0.134869 -0.250471 -3.082936 1.873467803567068e-38
0.133158 -0.237782 -3.043833 1.873467803567068e-38
0.134503 -0.230577 -3.074577 1.873467803567068e-38
0.134201 -0.220474 -3.067677 1.873467803567068e-38
0.134468 -0.211307 -3.073778 1.873467803567068e-38
0.134195 -0.201292 -3.067533 1.873467803567068e-38
0.134753 -0.192504 -3.080285 1.874089839955382e-38
0.134420 -0.182427 -3.072670 1.874089839955382e-38
0.135125 -0.173732 -3.088782 1.874089839955382e-38
0.134600 -0.163442 -3.076782 1.874089839955382e-38
0.135343 -0.154678 -3.093775 1.874089839955382e-38
0.134611 -0.144226 -3.077043 1.874089839955382e-38
0.135209 -0.135209 -3.090716 1.874089839955382e-38
0.134694 -0.125073 -3.078947 1.874089839955382e-38
0.135107 -0.115806 -3.088377 1.874089839955382e-38
0.134960 -0.106040 -3.085010 1.874089839955382e-38
0.135500 -0.096786 -3.097375 1.874089839955382e-38
0.134491 -0.086459 -3.074300 1.874089839955382e-38
0.135265 -0.077294 -3.091990 1.874089839955382e-38
0.134717 -0.067358 -3.079462 1.874089839955382e-38
0.135600 -0.058114 -3.099653 1.874089839955382e-38
0.135112 -0.048254 -3.088504 1.874089839955382e-38
0.135685 -0.038767 -3.101604 1.874089839955382e-38
0.134945 -0.028917 -3.084669 1.874089839955382e-38
0.135197 -0.019314 -3.090428 1.874089839955382e-38
0.135470 -0.009676 -3.096682 1.874089839955382e-38
0.135003 0.000000 -3.086001 1.874089839955382e-38
0.134571 0.009612 -3.076122 1.874089839955382e-38
0.134930 0.019276 -3.084331 1.874089839955382e-38
0.135493 0.029034 -3.097213 1.874089839955382e-38
0.135889 0.038825 -3.106252 1.874089839955382e-38
0.135067 0.048238 -3.087471 1.874089839955382e-38
0.134717 0.057736 -3.079471 1.874089839955382e-38
0.135392 0.067696 -3.094886 1.874089839955382e-38
0.135714 0.077551 -3.102258 1.874089839955382e-38
0.135610 0.087178 -3.099881 1.874089839955382e-38
0.135644 0.096889 -3.100656 1.874089839955382e-38
0.135204 0.106231 -3.090589 1.874089839955382e-38
0.134792 0.115536 -3.081186 1.874089839955382e-38
0.135414 0.125742 -3.095402 1.874089839955382e-38
0.134557 0.134557 -3.075815 1.874089839955382e-38
0.134560 0.144172 -3.075886 1.874089839955382e-38
0.134825 0.154086 -3.081939 1.874089839955382e-38
0.134567 0.163403 -3.076045 1.874089839955382e-38
0.134902 0.173445 -3.083694 1.874089839955382e-38
0.135599 0.184027 -3.099630 1.874089839955382e-38
0.134619 0.192313 -3.077221 1.874089839955382e-38
0.135571 0.203357 -3.098989 1.874089839955382e-38
0.135138 0.212360 -3.089100 1.874089839955382e-38
0.134920 0.221655 -3.084110 1.874089839955382e-38
0.134749 0.230998 -3.080195 1.874089839955382e-38
0.135508 0.241979 -3.097557 1.874089839955382e-38
0.135126 0.250948 -3.088805 1.874089839955382e-38
0.135610 0.261534 -3.099885 1.874089839955382e-38
0.135078 0.270156 -3.087719 1.874089839955382e-38
0.135336 0.280339 -3.093620 1.874089839955382e-38
0.135866 0.291141 -3.105727 1.874089839955382e-38
0.135162 0.299287 -3.089635 1.874089839955382e-38
0.134758 0.308019 -3.080412 1.874089839955382e-38
0.135148 0.318564 -3.089328 1.874089839955382e-38
0.134549 0.326763 -3.075635 1.874089839955382e-38
0.134957 0.337393 -3.084955 1.874089839955382e-38
0.135324 0.347975 -3.093333 1.874089839955382e-38
0.135512 0.358139 -3.097640 1.874089839955382e-38
0.135237 0.367071 -3.091343 1.874089839955382e-38
0.134803 0.375523 -3.081435 1.874089839955382e-38
0.134481 0.384230 -3.074063 1.874089839955382e-38
0.134692 0.394455 -3.078893 1.874089839955382e-38
0.134412 0.403236 -3.072495 1.874089839955382e-38
0.134616 0.413464 -3.077161 1.874089839955382e-38
0.135772 0.426711 -3.103577 1.874089839955382e-38
0.134928 0.433697 -3.084288 1.874089839955382e-38
0.135612 0.445584 -3.099933 1.874089839955382e-38
0.136043 0.456716 -3.109779 1.874089839955382e-38
0.136331 0.467422 -3.116368 1.874089839955382e-38
0.136346 0.477211 -3.116705 1.874089839955382e-38
0.138780 0.495643 -3.172340 1.874089839955382e-38
0.213283 0.776959 -4.875386 1.880790849211783e-38
0.213759 0.793962 -4.886269 1.880790849211783e-38
0.213200 0.807115 -4.873496 1.880790849211783e-38
0.213500 0.823499 -4.880342 1.880790849211783e-38
0.213093 0.837153 -4.871054 1.880790849211783e-38
0.213693 0.854772 -4.884760 1.880790849211783e-38
0.213563 0.869506 -4.881783 1.880790849211783e-38
0.214375 0.888126 -4.900354 1.880790849211783e-38
0.213438 0.899488 -4.878929 1.880790849211783e-38
0.212752 0.911792 -4.863240 1.880790849211783e-38
0.213422 0.929909 -4.878561 1.880790849211783e-38
0.212793 0.942368 -4.864180 1.880790849211783e-38
0.213842 0.962288 -4.888159 1.880790849211783e-38
0.213418 0.975627 -4.878483 1.880790849211783e-38
0.212674 0.987413 -4.861455 1.880790849211783e-38
0.213740 1.007629 -4.885825 1.880790849211783e-38
0.213410 1.021318 -4.878283 1.880790849211783e-38
0.213679 1.037871 -4.884449 1.880790849211783e-38
0.213182 1.050685 -4.873089 1.880790849211783e-38
0.213089 1.065446 -4.870959 1.880790849211783e-38
0.212699 1.078686 -4.862029 1.880790849211783e-38
0.213430 1.097638 -4.878739 1.880790849211783e-38
0.213562 1.113572 -4.881761 1.880790849211783e-38
0.212880 1.125223 -4.866176 1.880790849211783e-38
0.213781 1.145254 -4.886765 1.880790849211783e-38
0.213880 1.161065 -4.889042 1.880790849211783e-38
0.213747 1.175606 -4.885984 1.880790849211783e-38
0.213078 1.187150 -4.870708 1.880790849211783e-38
0.212775 1.200657 -4.863768 1.880790849211783e-38
0.213400 1.219428 -4.878059 1.880790849211783e-38
0.213592 1.235782 -4.882448 1.880790849211783e-38
0.213551 1.250799 -4.881517 1.880790849211783e-38
0.213108 1.263426 -4.871387 1.880790849211783e-38
0.213773 1.282640 -4.886594 1.880790849211783e-38
0.212351 1.289276 -4.854089 1.880790849211783e-38
0.213917 1.314063 -4.889884 1.880790849211783e-38
0.212895 1.322991 -4.866522 1.880790849211783e-38
0.213409 1.341428 -4.878268 1.880790849211783e-38
0.213391 1.356554 -4.877847 1.880790849211783e-38
0.213479 1.372368 -4.879878 1.880790849211783e-38
0.213442 1.387373 -4.879022 1.880790849211783e-38
0.212316 1.395218 -4.853280 1.880790849211783e-38
0.213133 1.415813 -4.871962 1.880790849211783e-38
0.212463 1.426538 -4.856645 1.880790849211783e-38
0.213348 1.447717 -4.876868 1.880790849211783e-38
0.213902 1.466754 -4.889530 1.880790849211783e-38
0.213299 1.477860 -4.875762 1.880790849211783e-38
0.213725 1.496076 -4.885494 1.880790849211783e-38
0.212581 1.503250 -4.859337 1.880790849211783e-38
0.212753 1.519664 -4.863273 1.880790849211783e-38
0.212981 1.536504 -4.868478 1.880790849211783e-38
0.213647 1.556569 -4.883704 1.880790849211783e-38
0.213610 1.571560 -4.882866 1.880790849211783e-38
0.212750 1.580426 -4.863196 1.880790849211783e-38
0.212493 1.593695 -4.857322 1.880790849211783e-38
0.213666 1.617760 -4.884152 1.880790849211783e-38
0.213608 1.632573 -4.882810 1.880790849211783e-38
0.213400 1.646227 -4.878056 1.880790849211783e-38
0.212840 1.657113 -4.865265 1.880790849211783e-38
0.213239 1.675449 -4.874382 1.880790849211783e-38
0.213637 1.693834 -4.883473 1.880790849211783e-38
0.213570 1.708563 -4.881957 1.880790849211783e-38
0.212569 1.715734 -4.859064 1.880790849211783e-38
0.213221 1.736228 -4.873971 1.880790849211783e-38
0.213323 1.752300 -4.876313 1.880790849211783e-38
0.212989 1.764768 -4.868674 1.880790849211783e-38
0.213420 1.783578 -4.878510 1.880790849211783e-38
0.213587 1.800237 -4.882347 1.880790849211783e-38
0.213158 1.811842 -4.872529 1.880790849211783e-38
0.213269 1.828018 -4.875063 1.880790849211783e-38
0.212731 1.838604 -4.862771 1.880790849211783e-38
0.213999 1.864845 -4.891745 1.880790849211783e-38
0.214221 1.882086 -4.896832 1.880790849211783e-38
0.213420 1.890293 -4.878524 1.880790849211783e-38
0.213739 1.908380 -4.885801 1.880790849211783e-38
0.213738 1.923639 -4.885781 1.880790849211783e-38
0.213101 1.933131 -4.871228 1.880790849211783e-38
0.133653 -1.140506 -2.851469 4.333194603576166e-39
0.134936 -1.142461 -2.878848 4.333194603576166e-39
0.135864 -1.141258 -2.898641 4.333194603576166e-39
0.136623 -1.138525 -2.914831 4.333194603576166e-39
0.138938 -1.148556 -2.964226 4.333194603576166e-39
0.140098 -1.148803 -2.988970 4.333194603576166e-39
0.140496 -1.142703 -2.997468 4.333194603576166e-39
0.141564 -1.141951 -3.020252 4.333194603576166e-39
0.142656 -1.141245 -3.043538 4.333194603576166e-39
0.144009 -1.142475 -3.072421 4.333194603576166e-39
0.145470 -1.144365 -3.103584 4.333194603576166e-39
0.146163 -1.140070 -3.118363 4.333194603576166e-39
0.147914 -1.143865 -3.155714 4.333194603576166e-39
0.148790 -1.140727 -3.174422 4.333194603576166e-39
0.150788 -1.145985 -3.217031 4.333194603576166e-39
0.151653 -1.142449 -3.235486 4.333194603576166e-39
0.153497 -1.146113 -3.274843 4.333194603576166e-39
0.151803 -1.123343 -3.238698 4.389633300525313e-39
0.151688 -1.112376 -3.236235 4.389633300525313e-39
0.150859 -1.096240 -3.218550 4.389633300525313e-39
0.151974 -1.094215 -3.242349 4.389633300525313e-39
0.151742 -1.082427 -3.237394 4.389633300525313e-39
0.151096 -1.067743 -3.223605 4.389633300525313e-39
0.151673 -1.061710 -3.235917 4.389633300525313e-39
0.151126 -1.047804 -3.224243 4.389633300525313e-39
0.152400 -1.046479 -3.251429 4.389633300525313e-39
0.168123 -1.143238 -3.586884 4.333194603576166e-39
0.170440 -1.147631 -3.636317 4.333194603576166e-39
0.170718 -1.138121 -3.642249 4.333194603576166e-39
0.173410 -1.144508 -3.699684 4.333194603576166e-39
0.151702 -0.991118 -3.236534 1.873467803567068e-38
0.151711 -0.981067 -3.236740 1.873467803567068e-38
0.152557 -0.976364 -3.254778 1.873467803567068e-38
0.150388 -0.952458 -3.208507 1.873467803567068e-38
0.151471 -0.949221 -3.231622 1.873467803567068e-38
0.150873 -0.935415 -3.218863 1.873467803567068e-38
0.151675 -0.930273 -3.235962 1.873467803567068e-38
0.150704 -0.914269 -3.215241 1.873467803567068e-38
0.150852 -0.905115 -3.218415 1.873467803567068e-38
0.151761 -0.900449 -3.237800 1.873467803567068e-38
0.151218 -0.887147 -3.226219 1.873467803567068e-38
0.150564 -0.873271 -3.212262 1.873467803567068e-38
0.150560 -0.863208 -3.212167 1.873467803567068e-38
0.150912 -0.855169 -3.219687 1.873467803567068e-38
0.150020 -0.840111 -3.200650 1.873467803567068e-38
0.151336 -0.837391 -3.228725 1.873467803567068e-38
0.150346 -0.821893 -3.207617 1.873467803567068e-38
0.150565 -0.813051 -3.212284 1.873467803567068e-38
0.150000 -0.800000 -3.200227 1.873467803567068e-38
0.150581 -0.793062 -3.212631 1.873467803567068e-38
0.149449 -0.777137 -3.188483 1.873467803567068e-38
0.149514 -0.767507 -3.189869 1.873467803567068e-38
0.150476 -0.762409 -3.210374 1.873467803567068e-38
0.149762 -0.748808 -3.195143 1.873467803567068e-38
0.149015 -0.735140 -3.179212 1.873467803567068e-38
0.149633 -0.728216 -3.192406 1.873467803567068e-38
0.148432 -0.712472 -3.166767 1.873467803567068e-38
0.149946 -0.709746 -3.199082 1.873467803567068e-38
0.148742 -0.694129 -3.173389 1.873467803567068e-38
0.148400 -0.682639 -3.166088 1.873467803567068e-38
0.149523 -0.677836 -3.190047 1.873467803567068e-38
0.149080 -0.665889 -3.180593 1.873467803567068e-38
0.147944 -0.650954 -3.156368 1.873467803567068e-38
0.147692 -0.639999 -3.150988 1.873467803567068e-38
0.148100 -0.631895 -3.159700 1.873467803567068e-38
0.147992 -0.621566 -3.157384 1.873467803567068e-38
0.147910 -0.611360 -3.155633 1.873467803567068e-38
0.147072 -0.598091 -3.137752 1.873467803567068e-38
0.146923 -0.587692 -3.134583 1.873467803567068e-38
0.147038 -0.578349 -3.137033 1.873467803567068e-38
0.147152 -0.568989 -3.139472 1.873467803567068e-38
0.145633 -0.553407 -3.107066 1.873467803567068e-38
0.145931 -0.544809 -3.113414 1.873467803567068e-38
0.146951 -0.538822 -3.135186 1.873467803567068e-38
0.145937 -0.525373 -3.113546 1.873467803567068e-38
0.145952 -0.515699 -3.113874 1.873467803567068e-38
