# .PCD v.7 - Exported by BlenSor
VERSION .7
FIELDS x y z rgb
SIZE 4 4 4 4
TYPE F F F F
COUNT 1 1 1 1
WIDTH 929
HEIGHT 1
VIEWPOINT 0 0 0 1 0 0 0
POINTS 929
DATA ascii
-1.540503 -0.350808 -4.881150 1.880790849211783e-38
-1.536793 -0.334747 -4.869393 1.880790849211783e-38
-1.539208 -0.320033 -4.877045 1.880790849211783e-38
-1.544071 -0.305757 -4.892456 1.880790849211783e-38
-1.536448 -0.289035 -4.868302 1.880790849211783e-38
-1.545253 -0.275392 -4.896199 1.880790849211783e-38
-1.535546 -0.258458 -4.865444 1.880790849211783e-38
-1.540584 -0.244053 -4.881408 1.880790849211783e-38
-1.538432 -0.228480 -4.874588 1.880790849211783e-38
-1.537554 -0.213126 -4.871806 1.880790849211783e-38
-1.538487 -0.198023 -4.874763 1.880790849211783e-38
-1.540632 -0.183045 -4.881558 1.880790849211783e-38
-1.537646 -0.167466 -4.872096 1.880790849211783e-38
-1.539379 -0.152414 -4.877588 1.880790849211783e-38
-1.533331 -0.136633 -4.858425 1.880790849211783e-38
-1.538473 -0.121859 -4.874717 1.880790849211783e-38
-1.541273 -0.106821 -4.883589 1.880790849211783e-38
-1.534745 -0.091173 -4.862903 1.880790849211783e-38
-1.542798 -0.076376 -4.888422 1.880790849211783e-38
-1.536948 -0.060869 -4.869885 1.880790849211783e-38
-1.536581 -0.045641 -4.868723 1.880790849211783e-38
-1.542959 -0.030554 -4.888932 1.880790849211783e-38
-1.537638 -0.015224 -4.872072 1.880790849211783e-38
-1.542411 0.000000 -4.887196 1.880790849211783e-38
-1.538095 0.015229 -4.873520 1.880790849211783e-38
-1.539252 0.030480 -4.877184 1.880790849211783e-38
-1.537884 0.045680 -4.872851 1.880790849211783e-38
-1.541759 0.061060 -4.885130 1.880790849211783e-38
-1.537555 0.076117 -4.871810 1.880790849211783e-38
-1.539079 0.091430 -4.876638 1.880790849211783e-38
-1.541176 0.106814 -4.883282 1.880790849211783e-38
-1.537381 0.121773 -4.871256 1.880790849211783e-38
-1.540431 0.137266 -4.880920 1.880790849211783e-38
-1.541503 0.152624 -4.884317 1.880790849211783e-38
-1.542130 0.167955 -4.886303 1.880790849211783e-38
-1.536655 0.182573 -4.868957 1.880790849211783e-38
-1.537698 0.197921 -4.872261 1.880790849211783e-38
-1.537765 0.213155 -4.872473 1.880790849211783e-38
-1.533962 0.227816 -4.860425 1.880790849211783e-38
-1.539019 0.243805 -4.876446 1.880790849211783e-38
-1.539618 0.259144 -4.878345 1.880790849211783e-38
-1.537992 0.274098 -4.873192 1.880790849211783e-38
-1.541828 0.290047 -4.885349 1.880790849211783e-38
-1.538651 0.304683 -4.875281 1.880790849211783e-38
-1.537877 0.319757 -4.872829 1.880790849211783e-38
-1.536727 0.334733 -4.869185 1.880790849211783e-38
-1.534854 0.349521 -4.863252 1.880790849211783e-38
-1.535970 0.364983 -4.866786 1.880790849211783e-38
-1.541088 0.381457 -4.883003 1.880790849211783e-38
-1.543235 0.397268 -4.889806 1.880790849211783e-38
-1.539232 0.411478 -4.877122 1.880790849211783e-38
-1.538506 0.426516 -4.874821 1.880790849211783e-38
-1.536128 0.441066 -4.867287 1.880790849211783e-38
-1.539769 0.457357 -4.878824 1.880790849211783e-38
-1.540541 0.472839 -4.881269 1.880790849211783e-38
-1.547779 0.490385 -4.904203 1.880790849211783e-38
-1.542553 0.504003 -4.887646 1.880790849211783e-38
-1.540535 0.518596 -4.881252 1.880790849211783e-38
-1.541666 0.534241 -4.884834 1.880790849211783e-38
-1.538962 0.548541 -4.876266 1.880790849211783e-38
-1.541655 0.564765 -4.884799 1.880790849211783e-38
-1.537830 0.578589 -4.872680 1.880790849211783e-38
-1.538000 0.593881 -4.873218 1.880790849211783e-38
-1.536809 0.608637 -4.869444 1.880790849211783e-38
-1.535986 0.623519 -4.866838 1.880790849211783e-38
-1.537708 0.639443 -4.872293 1.880790849211783e-38
-1.542149 0.656559 -4.886367 1.880790849211783e-38
-1.538478 0.670228 -4.874732 1.880790849211783e-38
-1.543138 0.687537 -4.889498 1.880790849211783e-38
-1.537764 0.700368 -4.872471 1.880790849211783e-38
-1.538845 0.716096 -4.875896 1.880790849211783e-38
-1.538011 0.730936 -4.873254 1.880790849211783e-38
-1.538659 0.746478 -4.875308 1.880790849211783e-38
-1.542827 0.763776 -4.888513 1.880790849211783e-38
-1.540666 0.777960 -4.881668 1.880790849211783e-38
-1.534441 0.790009 -4.861941 1.880790849211783e-38
-1.534508 0.805237 -4.862156 1.880790849211783e-38
-1.542258 0.824573 -4.886710 1.880790849211783e-38
-1.539509 0.838346 -4.878000 1.880790849211783e-38
-1.537519 0.852485 -4.871693 1.880790849211783e-38
-1.532495 0.864874 -4.855778 1.880790849211783e-38
-1.542500 0.885792 -4.887477 1.880790849211783e-38
-1.535406 0.896920 -4.864999 1.880790849211783e-38
-1.539510 0.914560 -4.878002 1.880790849211783e-38
-1.541840 0.931211 -4.885387 1.880790849211783e-38
-1.538315 0.944312 -4.874216 1.880790849211783e-38
-1.539028 0.959988 -4.876477 1.880790849211783e-38
-1.538185 0.974691 -4.873805 1.880790849211783e-38
-1.542970 0.993001 -4.888968 1.880790849211783e-38
-1.537619 1.004781 -4.872012 1.880790849211783e-38
-1.538778 1.020774 -4.875684 1.880790849211783e-38
-1.544091 1.039586 -4.892519 1.880790849211783e-38
-1.538863 1.051302 -4.875952 1.880790849211783e-38
-1.538254 1.066117 -4.874024 1.880790849211783e-38
-1.541728 1.083789 -4.885030 1.880790849211783e-38
-1.535542 1.094644 -4.865432 1.880790849211783e-38
-1.541624 1.114243 -4.884701 1.880790849211783e-38
-1.540594 1.128752 -4.881439 1.880790849211783e-38
-1.541947 1.145010 -4.885724 1.880790849211783e-38
-1.537156 1.156672 -4.870544 1.880790849211783e-38
-1.536633 1.171492 -4.868887 1.880790849211783e-38
-1.540502 1.189695 -4.881147 1.880790849211783e-38
-1.538208 1.203153 -4.873878 1.880790849211783e-38
-1.536335 1.216899 -4.867942 1.880790849211783e-38
-1.541036 1.235880 -4.882837 1.880790849211783e-38
-1.545892 1.255081 -4.898227 1.880790849211783e-38
-1.534828 1.261294 -4.863167 1.880790849211783e-38
-1.541221 1.281807 -4.883424 1.880790849211783e-38
-1.541213 1.297060 -4.883398 1.880790849211783e-38
-1.536352 1.308181 -4.867997 1.880790849211783e-38
-1.544124 1.330087 -4.892624 1.880790849211783e-38
-1.539587 1.341422 -4.878246 1.880790849211783e-38
-1.542411 1.359154 -4.887195 1.880790849211783e-38
-1.543980 1.375824 -4.892169 1.880790849211783e-38
-1.542132 1.389446 -4.886312 1.880790849211783e-38
-1.539882 1.402665 -4.879182 1.880790849211783e-38
-1.538590 1.416721 -4.875088 1.880790849211783e-38
-1.543229 1.436273 -4.889788 1.880790849211783e-38
-1.536983 1.445677 -4.869996 1.880790849211783e-38
-1.540580 1.464314 -4.881394 1.880790849211783e-38
-1.537133 1.476257 -4.870473 1.880790849211783e-38
-1.535622 1.490009 -4.865683 1.880790849211783e-38
-1.536039 1.505622 -4.867003 1.880790849211783e-38
-1.537430 1.522208 -4.871412 1.880790849211783e-38
-1.537138 1.537138 -4.870489 1.880790849211783e-38
-1.541905 1.557171 -4.885592 1.880790849211783e-38
-1.539850 1.570342 -4.879081 1.880790849211783e-38
-1.542750 1.588574 -4.888268 1.880790849211783e-38
-1.545973 1.607200 -4.898481 1.880790849211783e-38
-1.538241 1.614392 -4.873983 1.880790849211783e-38
-1.539798 1.631271 -4.878916 1.880790849211783e-38
-1.536073 1.642534 -4.867114 1.880790849211783e-38
-1.546145 1.668612 -4.899026 1.880790849211783e-38
-1.540640 1.677925 -4.881584 1.880790849211783e-38
-1.542032 1.694709 -4.885995 1.880790849211783e-38
-1.540027 1.707753 -4.879642 1.880790849211783e-38
-1.537859 1.720575 -4.872774 1.880790849211783e-38
-1.542254 1.740762 -4.886699 1.880790849211783e-38
-1.538643 1.751921 -4.875257 1.880790849211783e-38
-1.542769 1.771893 -4.888329 1.880790849211783e-38
-1.540821 1.784911 -4.882157 1.880790849211783e-38
-1.538869 1.797886 -4.875972 1.880790849211783e-38
-1.538550 1.812747 -4.874961 1.880790849211783e-38
-1.536055 1.825016 -4.867057 1.880790849211783e-38
-1.534237 1.838047 -4.861296 1.880790849211783e-38
-1.541166 1.861607 -4.883251 1.880790849211783e-38
-1.541771 1.877602 -4.885167 1.880790849211783e-38
-1.536015 1.885801 -4.866930 1.880790849211783e-38
-1.543351 1.910088 -4.890173 1.880790849211783e-38
-1.541424 1.922964 -4.884068 1.880790849211783e-38
-1.540387 1.936922 -4.880783 1.880790849211783e-38
-0.893881 -1.144167 -2.860622 4.333194603576166e-39
-0.899052 -1.141796 -2.877171 4.333194603576166e-39
-0.904965 -1.140256 -2.896094 4.333194603576166e-39
-0.916423 -1.145529 -2.932764 4.333194603576166e-39
-0.919840 -1.140602 -2.943699 4.333194603576166e-39
-0.925891 -1.138846 -2.963063 4.333194603576166e-39
-0.935163 -1.140899 -2.992736 4.333194603576166e-39
-0.942475 -1.140395 -3.016135 4.333194603576166e-39
-0.950908 -1.141089 -3.043121 4.333194603576166e-39
-0.959670 -1.142008 -3.071164 4.333194603576166e-39
-0.969193 -1.143647 -3.101638 4.333194603576166e-39
-0.976023 -1.141946 -3.123495 4.333194603576166e-39
-0.985909 -1.143655 -3.155134 4.333194603576166e-39
-0.996610 -1.146101 -3.189379 4.333194603576166e-39
-1.001696 -1.141933 -3.205655 4.333194603576166e-39
-1.010362 -1.141709 -3.233389 4.333194603576166e-39
-1.020089 -1.142500 -3.264518 4.333194603576166e-39
-1.025231 -1.138007 -3.280974 4.333194603576166e-39
-1.036799 -1.140478 -3.317992 4.333194603576166e-39
-1.048743 -1.143130 -3.356218 4.333194603576166e-39
-1.059031 -1.143754 -3.389142 4.333194603576166e-39
-1.063352 -1.137787 -3.402971 4.333194603576166e-39
-1.076569 -1.141164 -3.445268 4.333194603576166e-39
-1.085979 -1.140278 -3.475382 4.333194603576166e-39
-1.093275 -1.137006 -3.498730 4.333194603576166e-39
-1.106372 -1.139564 -3.540644 4.333194603576166e-39
-1.116833 -1.139170 -3.574120 4.333194603576166e-39
-1.129060 -1.140351 -3.613251 4.333194603576166e-39
-1.151152 -1.151152 -3.683948 4.333194603576166e-39
-1.152905 -1.141376 -3.689559 4.333194603576166e-39
-1.163253 -1.139989 -3.722677 4.333194603576166e-39
-1.176871 -1.141565 -3.766255 4.333194603576166e-39
-1.184817 -1.137424 -3.791684 4.333194603576166e-39
-1.201443 -1.141371 -3.844891 4.333194603576166e-39
-1.215779 -1.142833 -3.890772 4.333194603576166e-39
-1.221186 -1.135703 -3.908074 4.333194603576166e-39
-1.242168 -1.142795 -3.975222 4.333194603576166e-39
-1.256766 -1.143657 -4.021939 4.333194603576166e-39
-1.267893 -1.141104 -4.057548 4.333194603576166e-39
-1.286902 -1.145342 -4.118379 4.333194603576166e-39
-1.296771 -1.141158 -4.149962 4.333194603576166e-39
-1.310001 -1.139701 -4.192303 4.333194603576166e-39
-1.329145 -1.143065 -4.253567 4.333194603576166e-39
-1.340856 -1.139727 -4.291045 4.333194603576166e-39
-1.363118 -1.145019 -4.362288 4.333194603576166e-39
-1.378228 -1.143930 -4.410645 4.333194603576166e-39
-1.393911 -1.143007 -4.460833 4.333194603576166e-39
-1.408595 -1.140962 -4.507827 4.333194603576166e-39
-1.426780 -1.141424 -4.566021 4.333194603576166e-39
-1.446486 -1.142724 -4.629085 4.333194603576166e-39
-1.465098 -1.142777 -4.688648 4.333194603576166e-39
-1.477212 -1.137453 -4.727417 4.333194603576166e-39
-1.502502 -1.141901 -4.808350 4.333194603576166e-39
-1.517068 -1.137801 -4.854963 4.333194603576166e-39
-1.519756 -1.124620 -4.863567 1.880790849211783e-38
-1.524911 -1.113185 -4.880064 1.880790849211783e-38
-1.525672 -1.098484 -4.882500 1.880790849211783e-38
-1.522126 -1.080709 -4.871149 1.880790849211783e-38
-1.524044 -1.066830 -4.877286 1.880790849211783e-38
-1.523944 -1.051521 -4.876967 1.880790849211783e-38
-1.523312 -1.035852 -4.874946 1.880790849211783e-38
-1.530162 -1.025208 -4.896867 1.880790849211783e-38
-1.519068 -1.002585 -4.861363 1.880790849211783e-38
-1.524022 -0.990614 -4.877216 1.880790849211783e-38
-1.521840 -0.973978 -4.870236 1.880790849211783e-38
-1.521044 -0.958258 -4.867689 1.880790849211783e-38
-1.528442 -0.947634 -4.891364 1.880790849211783e-38
-1.526052 -0.930892 -4.883716 1.880790849211783e-38
-1.525621 -0.915372 -4.882335 1.880790849211783e-38
-1.525129 -0.899826 -4.880761 1.880790849211783e-38
-1.522030 -0.882777 -4.870842 1.880790849211783e-38
-1.521979 -0.867528 -4.870681 1.880790849211783e-38
-1.523230 -0.853009 -4.874685 1.880790849211783e-38
-1.525839 -0.839211 -4.883032 1.880790849211783e-38
-1.525570 -0.823808 -4.882172 1.880790849211783e-38
-1.523234 -0.807314 -4.874695 1.880790849211783e-38
-1.523522 -0.792232 -4.875618 1.880790849211783e-38
-1.520576 -0.775494 -4.866190 1.880790849211783e-38
-1.518985 -0.759493 -4.861100 1.880790849211783e-38
-1.517398 -0.743525 -4.856021 1.880790849211783e-38
-1.522906 -0.730995 -4.873645 1.880790849211783e-38
-1.527330 -0.717845 -4.887805 1.880790849211783e-38
-1.521595 -0.699933 -4.869450 1.880790849211783e-38
-1.525394 -0.686427 -4.881608 1.880790849211783e-38
-1.526846 -0.671812 -4.886255 1.880790849211783e-38
-1.525994 -0.656177 -4.883528 1.880790849211783e-38
-1.525812 -0.640841 -4.882947 1.880790849211783e-38
-1.525550 -0.625475 -4.882108 1.880790849211783e-38
-1.523509 -0.609404 -4.875576 1.880790849211783e-38
-1.520942 -0.593167 -4.867362 1.880790849211783e-38
-1.521638 -0.578222 -4.869588 1.880790849211783e-38
-1.529925 -0.566072 -4.896109 1.880790849211783e-38
-1.523663 -0.548519 -4.876069 1.880790849211783e-38
-1.526381 -0.534233 -4.884767 1.880790849211783e-38
-1.525925 -0.518814 -4.883307 1.880790849211783e-38
-1.526054 -0.503598 -4.883722 1.880790849211783e-38
-1.523157 -0.487410 -4.874449 1.880790849211783e-38
-1.526061 -0.473079 -4.883743 1.880790849211783e-38
-1.522880 -0.456864 -4.873563 1.880790849211783e-38
-1.522574 -0.441547 -4.872585 1.880790849211783e-38
-1.519711 -0.425519 -4.863421 1.880790849211783e-38
-1.522810 -0.411159 -4.873340 1.880790849211783e-38
-1.524143 -0.396277 -4.877606 1.880790849211783e-38
-1.524679 -0.381170 -4.879320 1.880790849211783e-38
-1.521644 -0.365194 -4.869608 1.880790849211783e-38
-1.528078 -0.351458 -4.890200 1.880790849211783e-38
-1.523222 -0.335109 -4.874658 1.880790849211783e-38
-1.522999 -0.319830 -4.873944 1.880790849211783e-38
-1.521927 -0.304386 -4.870516 1.880790849211783e-38
-1.530374 -0.290771 -4.897545 1.880790849211783e-38
-1.522986 -0.274137 -4.873901 1.880790849211783e-38
-1.523543 -0.259002 -4.875685 1.880790849211783e-38
-1.525970 -0.244155 -4.883452 1.880790849211783e-38
-1.527507 -0.229126 -4.888371 1.880790849211783e-38
-1.520355 -0.212850 -4.865482 1.880790849211783e-38
-1.528464 -0.198700 -4.891435 1.880790849211783e-38
-1.521259 -0.182551 -4.868376 1.880790849211783e-38
-1.526162 -0.167878 -4.884067 1.880790849211783e-38
-1.524555 -0.152456 -4.878925 1.880790849211783e-38
-1.519259 -0.136733 -4.861975 1.880790849211783e-38
-1.516446 -0.121316 -4.852973 1.880790849211783e-38
-1.524735 -0.106731 -4.879502 1.880790849211783e-38
-1.515863 -0.090952 -4.851107 1.880790849211783e-38
-1.521066 -0.076053 -4.867760 1.880790849211783e-38
-1.522683 -0.060907 -4.872933 1.880790849211783e-38
-1.529765 -0.045893 -4.895596 1.880790849211783e-38
-1.524481 -0.030490 -4.878688 1.880790849211783e-38
-1.521742 -0.015217 -4.869923 1.880790849211783e-38
-1.524491 0.000000 -4.878719 1.880790849211783e-38
-1.529253 0.015293 -4.893959 1.880790849211783e-38
-1.521044 0.030421 -4.867689 1.880790849211783e-38
-1.527458 0.045824 -4.888215 1.880790849211783e-38
-1.528054 0.061122 -4.890121 1.880790849211783e-38
-1.527121 0.076356 -4.887135 1.880790849211783e-38
-1.519989 0.091199 -4.864313 1.880790849211783e-38
-1.524141 0.106690 -4.877600 1.880790849211783e-38
-1.521066 0.121685 -4.867759 1.880790849211783e-38
-1.523065 0.137076 -4.874156 1.880790849211783e-38
-1.526392 0.152639 -4.884803 1.880790849211783e-38
-1.521001 0.167310 -4.867550 1.880790849211783e-38
-1.524350 0.182922 -4.878267 1.880790849211783e-38
-1.524080 0.198130 -4.877404 1.880790849211783e-38
-1.520134 0.212819 -4.864777 1.880790849211783e-38
-1.525516 0.228827 -4.881999 1.880790849211783e-38
-1.523789 0.243806 -4.876472 1.880790849211783e-38
-1.526584 0.259519 -4.885417 1.880790849211783e-38
-1.525471 0.274585 -4.881854 1.880790849211783e-38
-1.524905 0.289732 -4.880044 1.880790849211783e-38
-1.526111 0.305222 -4.883904 1.880790849211783e-38
-1.516945 0.318558 -4.854570 1.880790849211783e-38
-1.525979 0.335715 -4.883480 1.880790849211783e-38
-1.519595 0.349507 -4.863051 1.880790849211783e-38
-1.516670 0.364001 -4.853690 1.880790849211783e-38
-1.526433 0.381608 -4.884936 1.880790849211783e-38
-1.528333 0.397367 -4.891015 1.880790849211783e-38
-1.527862 0.412523 -4.889508 1.880790849211783e-38
-1.522040 0.426171 -4.870874 1.880790849211783e-38
-1.522459 0.441513 -4.872217 1.880790849211783e-38
-1.529314 0.458794 -4.894153 1.880790849211783e-38
-1.524789 0.472685 -4.879674 1.880790849211783e-38
-1.521724 0.486952 -4.869864 1.880790849211783e-38
-1.528317 0.504345 -4.890964 1.880790849211783e-38
-1.518697 0.516357 -4.860176 1.880790849211783e-38
-1.526030 0.534110 -4.883644 1.880790849211783e-38
-1.523319 0.548395 -4.874969 1.880790849211783e-38
-1.525864 0.564570 -4.883112 1.880790849211783e-38
-1.520899 0.577942 -4.867224 1.880790849211783e-38
-1.529840 0.596638 -4.895836 1.880790849211783e-38
-1.526770 0.610708 -4.886014 1.880790849211783e-38
-1.523169 0.624499 -4.874487 1.880790849211783e-38
-1.526439 0.641104 -4.884953 1.880790849211783e-38
-1.524096 0.655361 -4.877453 1.880790849211783e-38
-1.526526 0.671671 -4.885231 1.880790849211783e-38
-1.523465 0.685559 -4.875436 1.880790849211783e-38
-1.524628 0.701329 -4.879158 1.880790849211783e-38
-1.521266 0.714995 -4.868398 1.880790849211783e-38
-1.525858 0.732412 -4.883092 1.880790849211783e-38
-1.524847 0.747175 -4.879860 1.880790849211783e-38
-1.523606 0.761803 -4.875886 1.880790849211783e-38
-1.518842 0.774609 -4.860641 1.880790849211783e-38
-1.526173 0.793610 -4.884102 1.880790849211783e-38
-1.525842 0.808696 -4.883043 1.880790849211783e-38
-1.531373 0.826941 -4.900744 1.880790849211783e-38
-1.527243 0.839983 -4.887525 1.880790849211783e-38
-1.525475 0.854266 -4.881866 1.880790849211783e-38
-1.527675 0.870775 -4.888909 1.880790849211783e-38
-1.526451 0.885342 -4.884993 1.880790849211783e-38
-1.525271 0.899910 -4.881216 1.880790849211783e-38
-1.525169 0.915101 -4.880889 1.880790849211783e-38
-1.525397 0.930492 -4.881620 1.880790849211783e-38
-1.527027 0.946757 -4.886836 1.880790849211783e-38
-1.522363 0.959089 -4.871910 1.880790849211783e-38
-1.522864 0.974633 -4.873511 1.880790849211783e-38
-1.521426 0.988927 -4.868909 1.880790849211783e-38
-1.529352 1.009372 -4.894275 1.880790849211783e-38
-1.522091 1.019801 -4.871039 1.880790849211783e-38
-1.521583 1.034676 -4.869412 1.880790849211783e-38
-1.526876 1.053544 -4.886350 1.880790849211783e-38
-1.524206 1.066944 -4.877807 1.880790849211783e-38
-1.523724 1.081844 -4.876266 1.880790849211783e-38
-1.521100 1.095192 -4.867867 1.880790849211783e-38
-1.527721 1.115236 -4.889055 1.880790849211783e-38
-1.518159 1.123438 -4.858456 1.880790849211783e-38
-1.524504 1.143378 -4.878760 1.880790849211783e-38
-1.527440 1.160854 -4.888158 1.880790849211783e-38
-1.529325 1.177580 -4.894188 1.880790849211783e-38
-1.525118 1.189592 -4.880726 1.880790849211783e-38
-1.524802 1.204594 -4.879715 1.880790849211783e-38
-1.521963 1.217571 -4.870630 1.880790849211783e-38
-1.529316 1.238746 -4.894159 1.880790849211783e-38
-1.525797 1.251154 -4.882901 1.880790849211783e-38
-1.528541 1.268689 -4.891681 1.880790849211783e-38
-1.521690 1.278219 -4.869755 1.880790849211783e-38
-1.522845 1.294418 -4.873453 1.880790849211783e-38
-1.525728 1.312126 -4.882678 1.880790849211783e-38
-1.522317 1.324416 -4.871761 1.880790849211783e-38
-1.524305 1.341388 -4.878124 1.880790849211783e-38
-1.522645 1.355154 -4.872811 1.880790849211783e-38
-1.525550 1.372995 -4.882107 1.880790849211783e-38
-1.527279 1.389824 -4.887640 1.880790849211783e-38
-1.524716 1.402738 -4.879438 1.880790849211783e-38
-1.526164 1.419333 -4.884074 1.880790849211783e-38
-1.522380 1.431038 -4.871965 1.880790849211783e-38
-1.523431 1.447260 -4.875327 1.880790849211783e-38
-1.526305 1.465253 -4.884525 1.880790849211783e-38
-1.526365 1.480574 -4.884716 1.880790849211783e-38
-1.520351 1.489944 -4.865469 1.880790849211783e-38
-1.522726 1.507499 -4.873070 1.880790849211783e-38
-1.521889 1.521889 -4.870394 1.880790849211783e-38
-1.521663 1.536879 -4.869668 1.880790849211783e-38
-1.524250 1.554735 -4.877948 1.880790849211783e-38
-1.525676 1.571446 -4.882511 1.880790849211783e-38
-1.529845 1.591039 -4.895854 1.880790849211783e-38
-1.523220 1.599381 -4.874653 1.880790849211783e-38
-1.522995 1.614375 -4.873932 1.880790849211783e-38
-1.523710 1.630369 -4.876219 1.880790849211783e-38
-1.523350 1.645218 -4.875067 1.880790849211783e-38
-1.521306 1.658224 -4.868527 1.880790849211783e-38
-1.524110 1.676521 -4.877500 1.880790849211783e-38
-1.522182 1.689621 -4.871329 1.880790849211783e-38
-1.525443 1.708497 -4.881767 1.880790849211783e-38
-1.526418 1.724852 -4.884887 1.880790849211783e-38
-1.524241 1.737635 -4.877919 1.880790849211783e-38
-1.525269 1.754059 -4.881208 1.880790849211783e-38
-1.526506 1.770747 -4.885167 1.880790849211783e-38
-1.526709 1.786249 -4.885817 1.880790849211783e-38
-1.527717 1.802706 -4.889043 1.880790849211783e-38
-1.524349 1.813976 -4.878266 1.880790849211783e-38
-1.518975 1.822770 -4.861066 1.880790849211783e-38
-1.523173 1.843040 -4.874502 1.880790849211783e-38
-1.526079 1.861816 -4.883801 1.880790849211783e-38
-1.523114 1.873431 -4.874314 1.880790849211783e-38
-1.522333 1.887693 -4.871813 1.880790849211783e-38
-1.521960 1.902450 -4.870621 1.880790849211783e-38
-1.527041 1.924071 -4.886878 1.880790849211783e-38
-1.527735 1.940223 -4.889101 1.880790849211783e-38
-0.879934 -1.137692 -2.844434 4.333194603576166e-39
-0.891372 -1.143477 -2.881407 4.333194603576166e-39
-0.894564 -1.138537 -2.891728 4.333194603576166e-39
-0.901881 -1.138738 -2.915378 4.333194603576166e-39
-0.917682 -1.149420 -2.966456 4.333194603576166e-39
-0.920212 -1.143294 -2.974636 4.333194603576166e-39
-0.927886 -1.143456 -2.999442 4.333194603576166e-39
-0.935092 -1.142890 -3.022734 4.333194603576166e-39
-0.943111 -1.143165 -3.048658 4.333194603576166e-39
-0.949850 -1.141739 -3.070440 4.333194603576166e-39
-0.961880 -1.146483 -3.109328 4.333194603576166e-39
-0.966411 -1.142122 -3.123976 4.333194603576166e-39
-0.979542 -1.147746 -3.166423 4.333194603576166e-39
-0.981488 -1.140113 -3.172713 4.333194603576166e-39
-0.991886 -1.142171 -3.206324 4.333194603576166e-39
-1.001035 -1.142595 -3.235899 4.333194603576166e-39
-1.008623 -1.141069 -3.260429 4.333194603576166e-39
-1.019424 -1.142991 -3.295343 4.333194603576166e-39
-1.028310 -1.142567 -3.324068 4.333194603576166e-39
-1.038145 -1.143009 -3.355861 4.333194603576166e-39
-1.044960 -1.139957 -3.377891 4.333194603576166e-39
-1.053290 -1.138404 -3.404817 4.333194603576166e-39
-1.067782 -1.143282 -3.451663 4.333194603576166e-39
-1.077532 -1.142837 -3.483181 4.333194603576166e-39
-1.085543 -1.140368 -3.509075 4.333194603576166e-39
-1.098395 -1.142775 -3.550622 4.333194603576166e-39
-1.102665 -1.136079 -3.564425 4.333194603576166e-39
-1.120222 -1.142853 -3.621178 4.333194603576166e-39
-1.131264 -1.142691 -3.656871 4.333194603576166e-39
-1.137486 -1.137486 -3.676984 4.333194603576166e-39
-1.153737 -1.142084 -3.729519 4.333194603576166e-39
-1.164769 -1.141239 -3.765180 4.333194603576166e-39
-1.182277 -1.146451 -3.821775 4.333194603576166e-39
-1.193393 -1.145175 -3.857707 4.333194603576166e-39
-1.200333 -1.139710 -3.880141 4.333194603576166e-39
-1.214697 -1.141078 -3.926572 4.333194603576166e-39
-1.228316 -1.141466 -3.970599 4.333194603576166e-39
-1.240348 -1.140118 -4.009492 4.333194603576166e-39
-1.257865 -1.143514 -4.066116 4.333194603576166e-39
-1.271388 -1.142965 -4.109829 4.333194603576166e-39
-1.289481 -1.146205 -4.168316 4.333194603576166e-39
-1.302612 -1.144720 -4.210763 4.333194603576166e-39
-1.314831 -1.142176 -4.250261 4.333194603576166e-39
-1.327249 -1.139557 -4.290404 4.333194603576166e-39
-1.345819 -1.141907 -4.350433 4.333194603576166e-39
-1.361099 -1.141123 -4.399825 4.333194603576166e-39
-1.378409 -1.141713 -4.455781 4.333194603576166e-39
-1.396113 -1.142274 -4.513010 4.333194603576166e-39
-1.413349 -1.142100 -4.568728 4.333194603576166e-39
-1.429305 -1.140556 -4.620305 4.333194603576166e-39
-1.449048 -1.141674 -4.684126 4.333194603576166e-39
-1.464574 -1.139113 -4.734314 4.333194603576166e-39
-1.487201 -1.141690 -4.807457 4.333194603576166e-39
-1.507741 -1.142228 -4.873856 4.333194603576166e-39
-1.505728 -1.125493 -4.867345 1.880790849211783e-38
-1.512386 -1.115194 -4.888868 1.880790849211783e-38
-1.507943 -1.096686 -4.874507 1.880790849211783e-38
-1.514481 -1.086143 -4.895643 1.880790849211783e-38
-1.504032 -1.063457 -4.861865 1.880790849211783e-38
-1.512779 -1.054361 -4.890140 1.880790849211783e-38
-1.510220 -1.037323 -4.881868 1.880790849211783e-38
-1.504807 -1.018405 -4.864371 1.880790849211783e-38
-1.506856 -1.004571 -4.870994 1.880790849211783e-38
-1.514434 -0.994325 -4.895488 1.880790849211783e-38
-1.508803 -0.975388 -4.877288 1.880790849211783e-38
-1.510831 -0.961438 -4.883842 1.880790849211783e-38
-1.508726 -0.944859 -4.877039 1.880790849211783e-38
-1.507531 -0.928882 -4.873174 1.880790849211783e-38
-1.510958 -0.915732 -4.884253 1.880790849211783e-38
-1.510258 -0.900053 -4.881990 1.880790849211783e-38
-1.509928 -0.884605 -4.880925 1.880790849211783e-38
-1.506424 -0.867335 -4.869598 1.880790849211783e-38
-1.508775 -0.853449 -4.877198 1.880790849211783e-38
-1.509898 -0.838832 -4.880826 1.880790849211783e-38
-1.509621 -0.823430 -4.879931 1.880790849211783e-38
-1.508946 -0.807819 -4.877748 1.880790849211783e-38
-1.511250 -0.793788 -4.885198 1.880790849211783e-38
-1.508577 -0.777146 -4.876555 1.880790849211783e-38
-1.509759 -0.762505 -4.880377 1.880790849211783e-38
-1.510179 -0.747463 -4.881736 1.880790849211783e-38
-1.511260 -0.732732 -4.885228 1.880790849211783e-38
-1.507144 -0.715513 -4.871924 1.880790849211783e-38
-1.517003 -0.704870 -4.903794 1.880790849211783e-38
-1.509510 -0.686141 -4.879574 1.880790849211783e-38
-1.507562 -0.670028 -4.873276 1.880790849211783e-38
-1.504798 -0.653599 -4.864339 1.880790849211783e-38
-1.512682 -0.641744 -4.889826 1.880790849211783e-38
-1.502925 -0.622424 -4.858287 1.880790849211783e-38
-1.509053 -0.609718 -4.878096 1.880790849211783e-38
-1.502295 -0.591813 -4.856248 1.880790849211783e-38
-1.511305 -0.580097 -4.885376 1.880790849211783e-38
-1.508771 -0.563884 -4.877184 1.880790849211783e-38
-1.506542 -0.547834 -4.869979 1.880790849211783e-38
-1.506763 -0.532694 -4.870693 1.880790849211783e-38
-1.508312 -0.518006 -4.875700 1.880790849211783e-38
-1.509951 -0.503317 -4.881000 1.880790849211783e-38
-1.506552 -0.486966 -4.870010 1.880790849211783e-38
-1.507253 -0.471968 -4.872278 1.880790849211783e-38
-1.509403 -0.457395 -4.879227 1.880790849211783e-38
-1.504850 -0.440815 -4.864511 1.880790849211783e-38
-1.507075 -0.426243 -4.871701 1.880790849211783e-38
-1.506698 -0.410918 -4.870484 1.880790849211783e-38
-1.509455 -0.396423 -4.879395 1.880790849211783e-38
-1.506038 -0.380313 -4.868350 1.880790849211783e-38
-1.505288 -0.364918 -4.865925 1.880790849211783e-38
-1.508101 -0.350367 -4.875020 1.880790849211783e-38
-1.507372 -0.334972 -4.872661 1.880790849211783e-38
-1.514116 -0.321176 -4.894462 1.880790849211783e-38
-1.504413 -0.303922 -4.863097 1.880790849211783e-38
-1.510384 -0.289872 -4.882399 1.880790849211783e-38
-1.511993 -0.274908 -4.887599 1.880790849211783e-38
-1.509358 -0.259183 -4.879083 1.880790849211783e-38
-1.508183 -0.243747 -4.875282 1.880790849211783e-38
-1.505271 -0.228071 -4.865870 1.880790849211783e-38
-1.507464 -0.213177 -4.872959 1.880790849211783e-38
-1.507189 -0.197914 -4.872069 1.880790849211783e-38
-1.513991 -0.183514 -4.894056 1.880790849211783e-38
-1.513305 -0.168145 -4.891841 1.880790849211783e-38
-1.509127 -0.152437 -4.878334 1.880790849211783e-38
-1.510357 -0.137305 -4.882309 1.880790849211783e-38
-1.513030 -0.122265 -4.890950 1.880790849211783e-38
-1.509528 -0.106734 -4.879632 1.880790849211783e-38
-1.507715 -0.091377 -4.873771 1.880790849211783e-38
-1.514043 -0.076467 -4.894226 1.880790849211783e-38
-1.510535 -0.061032 -4.882885 1.880790849211783e-38
-1.512310 -0.045828 -4.888623 1.880790849211783e-38
-1.509850 -0.030502 -4.880672 1.880790849211783e-38
-1.512198 -0.015275 -4.888261 1.880790849211783e-38
-1.513252 0.000000 -4.891668 1.880790849211783e-38
-1.514468 0.015298 -4.895598 1.880790849211783e-38
-1.508401 0.030473 -4.875988 1.880790849211783e-38
-1.510722 0.045779 -4.883491 1.880790849211783e-38
-1.509294 0.060982 -4.878873 1.880790849211783e-38
-1.510091 0.076267 -4.881452 1.880790849211783e-38
-1.512185 0.091648 -4.888220 1.880790849211783e-38
-1.508159 0.106638 -4.875206 1.880790849211783e-38
-1.505481 0.121655 -4.866549 1.880790849211783e-38
-1.512277 0.137480 -4.888518 1.880790849211783e-38
-1.505321 0.152053 -4.866030 1.880790849211783e-38
-1.505287 0.167254 -4.865921 1.880790849211783e-38
-1.512629 0.183349 -4.889654 1.880790849211783e-38
-1.502824 0.197341 -4.857958 1.880790849211783e-38
-1.505007 0.212829 -4.865015 1.880790849211783e-38
-1.502213 0.227608 -4.855986 1.880790849211783e-38
-1.507937 0.243707 -4.874489 1.880790849211783e-38
-1.513449 0.259885 -4.892305 1.880790849211783e-38
-1.509367 0.274430 -4.879111 1.880790849211783e-38
-1.511238 0.290036 -4.885159 1.880790849211783e-38
-1.502472 0.303530 -4.856821 1.880790849211783e-38
-1.511073 0.320531 -4.884626 1.880790849211783e-38
-1.511935 0.335985 -4.887410 1.880790849211783e-38
-1.504891 0.349621 -4.864643 1.880790849211783e-38
-1.512259 0.366608 -4.888458 1.880790849211783e-38
-1.507595 0.380706 -4.873382 1.880790849211783e-38
-1.508034 0.396049 -4.874800 1.880790849211783e-38
-1.512659 0.412543 -4.889752 1.880790849211783e-38
-1.507525 0.426371 -4.873157 1.880790849211783e-38
-1.504751 0.440786 -4.864189 1.880790849211783e-38
-1.508064 0.456989 -4.874899 1.880790849211783e-38
-1.505782 0.471507 -4.867521 1.880790849211783e-38
-1.508373 0.487555 -4.875897 1.880790849211783e-38
-1.512818 0.504273 -4.890267 1.880790849211783e-38
-1.509869 0.518541 -4.880732 1.880790849211783e-38
-1.504200 0.531788 -4.862407 1.880790849211783e-38
-1.510373 0.549226 -4.882361 1.880790849211783e-38
-1.504379 0.562243 -4.862987 1.880790849211783e-38
-1.502930 0.576882 -4.858303 1.880790849211783e-38
-1.504147 0.592543 -4.862235 1.880790849211783e-38
-1.512592 0.611148 -4.889534 1.880790849211783e-38
-1.513615 0.626850 -4.892841 1.880790849211783e-38
-1.510336 0.640749 -4.882243 1.880790849211783e-38
-1.505823 0.654045 -4.867655 1.880790849211783e-38
-1.505451 0.669089 -4.866453 1.880790849211783e-38
-1.510830 0.686741 -4.883839 1.880790849211783e-38
-1.508674 0.701000 -4.876870 1.880790849211783e-38
-1.508286 0.716055 -4.875617 1.880790849211783e-38
-1.510220 0.732228 -4.881867 1.880790849211783e-38
-1.505920 0.745354 -4.867967 1.880790849211783e-38
-1.513334 0.764310 -4.891932 1.880790849211783e-38
-1.512151 0.778987 -4.888111 1.880790849211783e-38
-1.507779 0.791965 -4.873976 1.880790849211783e-38
-1.512640 0.809797 -4.889691 1.880790849211783e-38
-1.511439 0.824421 -4.885808 1.880790849211783e-38
-1.505479 0.836377 -4.866542 1.880790849211783e-38
-1.505336 0.851503 -4.866081 1.880790849211783e-38
-1.509303 0.868993 -4.878904 1.880790849211783e-38
-1.504436 0.881387 -4.863171 1.880790849211783e-38
-1.508331 0.898904 -4.875762 1.880790849211783e-38
-1.507526 0.913652 -4.873160 1.880790849211783e-38
-1.505324 0.927523 -4.866041 1.880790849211783e-38
-1.507948 0.944372 -4.874523 1.880790849211783e-38
-1.509840 0.960807 -4.880638 1.880790849211783e-38
-1.513779 0.978604 -4.893371 1.880790849211783e-38
-1.511550 0.992432 -4.886168 1.880790849211783e-38
-1.509012 1.006008 -4.877961 1.880790849211783e-38
-1.504093 1.017922 -4.862063 1.880790849211783e-38
-1.505442 1.034041 -4.866422 1.880790849211783e-38
-1.512039 1.053845 -4.887748 1.880790849211783e-38
-1.508950 1.066934 -4.877761 1.880790849211783e-38
-1.508200 1.081638 -4.875338 1.880790849211783e-38
-1.515394 1.102105 -4.898592 1.880790849211783e-38
-1.502088 1.107600 -4.855579 1.880790849211783e-38
-1.504863 1.124847 -4.864549 1.880790849211783e-38
-1.513149 1.146325 -4.891337 1.880790849211783e-38
-1.504950 1.155315 -4.864832 1.880790849211783e-38
-1.511441 1.175565 -4.885815 1.880790849211783e-38
-1.504853 1.185642 -4.864519 1.880790849211783e-38
-1.507207 1.202721 -4.872127 1.880790849211783e-38
-1.509248 1.219594 -4.878726 1.880790849211783e-38
-1.509940 1.235405 -4.880962 1.880790849211783e-38
-1.508205 1.249220 -4.875355 1.880790849211783e-38
-1.509052 1.265165 -4.878093 1.880790849211783e-38
-1.507288 1.278911 -4.872388 1.880790849211783e-38
-1.512268 1.298412 -4.888488 1.880790849211783e-38
-1.510708 1.312333 -4.883446 1.880790849211783e-38
-1.510737 1.327617 -4.883538 1.880790849211783e-38
-1.508925 1.341266 -4.877680 1.880790849211783e-38
-1.510682 1.358088 -4.883360 1.880790849211783e-38
-1.512494 1.374994 -4.889217 1.880790849211783e-38
-1.508550 1.386647 -4.876468 1.880790849211783e-38
-1.510318 1.403528 -4.882183 1.880790849211783e-38
-1.509710 1.418212 -4.880219 1.880790849211783e-38
-1.509233 1.433009 -4.878678 1.880790849211783e-38
-1.505404 1.444579 -4.866298 1.880790849211783e-38
-1.509154 1.463422 -4.878421 1.880790849211783e-38
-1.506514 1.476080 -4.869889 1.880790849211783e-38
-1.512717 1.497437 -4.889940 1.880790849211783e-38
-1.505706 1.505706 -4.867277 1.880790849211783e-38
-1.510881 1.526143 -4.884005 1.880790849211783e-38
-1.506679 1.537117 -4.870420 1.880790849211783e-38
-1.509045 1.554774 -4.878071 1.880790849211783e-38
-1.506239 1.567097 -4.868999 1.880790849211783e-38
-1.503644 1.579586 -4.860611 1.880790849211783e-38
-1.506512 1.597816 -4.869881 1.880790849211783e-38
-1.509926 1.616689 -4.880918 1.880790849211783e-38
-1.507009 1.628787 -4.871487 1.880790849211783e-38
-1.512006 1.649461 -4.887640 1.880790849211783e-38
-1.512406 1.665175 -4.888935 1.880790849211783e-38
-1.507189 1.674654 -4.872070 1.880790849211783e-38
-1.507957 1.690739 -4.874550 1.880790849211783e-38
-1.507359 1.705295 -4.872621 1.880790849211783e-38
-1.510214 1.723780 -4.881849 1.880790849211783e-38
-1.506095 1.734291 -4.868532 1.880790849211783e-38
-1.506672 1.750175 -4.870399 1.880790849211783e-38
-1.510625 1.770025 -4.883176 1.880790849211783e-38
-1.510884 1.785590 -4.884014 1.880790849211783e-38
-1.509185 1.798826 -4.878521 1.880790849211783e-38
-1.509346 1.814264 -4.879042 1.880790849211783e-38
-1.511110 1.831648 -4.884744 1.880790849211783e-38
-1.506933 1.841806 -4.871241 1.880790849211783e-38
-1.509587 1.860299 -4.879822 1.880790849211783e-38
-1.508699 1.874444 -4.876951 1.880790849211783e-38
-1.508765 1.889767 -4.877166 1.880790849211783e-38
-1.509388 1.905794 -4.879179 1.880790849211783e-38
-1.512950 1.925573 -4.890692 1.880790849211783e-38
-1.507605 1.933999 -4.873415 1.880790849211783e-38
-0.875589 -1.143627 -2.859271 4.333194603576166e-39
-0.878765 -1.138808 -2.869642 4.333194603576166e-39
-0.889212 -1.143273 -2.903757 4.333194603576166e-39
-0.897830 -1.145192 -2.931899 4.333194603576166e-39
-0.900900 -1.139915 -2.941925 4.333194603576166e-39
-0.909975 -1.142111 -2.971559 4.333194603576166e-39
-0.916458 -1.140896 -2.992728 4.333194603576166e-39
-0.921275 -1.137493 -3.008460 4.333194603576166e-39
-0.932570 -1.141922 -3.045342 4.333194603576166e-39
-0.938781 -1.139948 -3.065626 4.333194603576166e-39
-0.949110 -1.142806 -3.099356 4.333194603576166e-39
-0.959165 -1.145125 -3.132190 4.333194603576166e-39
-0.966988 -1.144598 -3.157738 4.333194603576166e-39
-0.972174 -1.140817 -3.174672 4.333194603576166e-39
-0.984579 -1.145327 -3.215182 4.333194603576166e-39
-0.995639 -1.148033 -3.251298 4.333194603576166e-39
-0.998334 -1.140953 -3.260098 4.333194603576166e-39
-1.013245 -1.147656 -3.308793 4.333194603576166e-39
-1.014115 -1.138293 -3.311633 4.333194603576166e-39
-1.029833 -1.145427 -3.362961 4.333194603576166e-39
-1.034849 -1.140445 -3.379339 4.333194603576166e-39
-1.046031 -1.142095 -3.415855 4.333194603576166e-39
-1.051138 -1.136945 -3.432532 4.333194603576166e-39
-1.062564 -1.138462 -3.469845 4.333194603576166e-39
-1.074735 -1.140535 -3.509588 4.333194603576166e-39
-1.088308 -1.143834 -3.553914 4.333194603576166e-39
-1.096440 -1.141192 -3.580467 4.333194603576166e-39
-1.106697 -1.140576 -3.613963 4.333194603576166e-39
-1.120594 -1.143463 -3.659342 4.333194603576166e-39
-1.131833 -1.143382 -3.696044 4.333194603576166e-39
-1.136444 -1.136444 -3.711104 4.333194603576166e-39
-1.150367 -1.138629 -3.756569 4.333194603576166e-39
-1.168160 -1.144320 -3.814671 4.333194603576166e-39
-1.181877 -1.145697 -3.859464 4.333194603576166e-39
-1.194452 -1.145699 -3.900531 4.333194603576166e-39
-1.204027 -1.142596 -3.931796 4.333194603576166e-39
-1.214750 -1.140377 -3.966812 4.333194603576166e-39
-1.236189 -1.147890 -4.036823 4.333194603576166e-39
-1.244185 -1.142619 -4.062934 4.333194603576166e-39
-1.259040 -1.143414 -4.111443 4.333194603576166e-39
-1.269236 -1.139722 -4.144739 4.333194603576166e-39
-1.286744 -1.142314 -4.201914 4.333194603576166e-39
-1.296269 -1.137542 -4.233018 4.333194603576166e-39
-1.316593 -1.141943 -4.299385 4.333194603576166e-39
-1.328591 -1.138792 -4.338566 4.333194603576166e-39
-1.344031 -1.138312 -4.388985 4.333194603576166e-39
-1.365298 -1.142392 -4.458434 4.333194603576166e-39
-1.380292 -1.140854 -4.507398 4.333194603576166e-39
-1.398989 -1.142032 -4.568454 4.333194603576166e-39
-1.411082 -1.137504 -4.607942 4.333194603576166e-39
-1.431808 -1.139602 -4.675623 4.333194603576166e-39
-1.455047 -1.143251 -4.751512 4.333194603576166e-39
-1.472731 -1.142118 -4.809261 4.333194603576166e-39
-1.494135 -1.143471 -4.879156 4.333194603576166e-39
-1.495505 -1.129259 -4.883630 1.880790849211783e-38
-1.489103 -1.109230 -4.862725 1.880790849211783e-38
-1.495314 -1.098598 -4.883007 1.880790849211783e-38
-1.495086 -1.083174 -4.882261 1.880790849211783e-38
-1.494612 -1.067580 -4.880715 1.880790849211783e-38
-1.491251 -1.049963 -4.869740 1.880790849211783e-38
-1.496685 -1.038516 -4.887485 1.880790849211783e-38
-1.492582 -1.020439 -4.874086 1.880790849211783e-38
-1.493672 -1.005943 -4.877645 1.880790849211783e-38
-1.491230 -0.989081 -4.869669 1.880790849211783e-38
-1.494938 -0.976286 -4.881778 1.880790849211783e-38
-1.493457 -0.960080 -4.876943 1.880790849211783e-38
-1.492243 -0.944072 -4.872979 1.880790849211783e-38
-1.491610 -0.928451 -4.870911 1.880790849211783e-38
-1.497119 -0.916603 -4.888900 1.880790849211783e-38
-1.489487 -0.896732 -4.863979 1.880790849211783e-38
-1.496575 -0.885728 -4.887125 1.880790849211783e-38
-1.497469 -0.870977 -4.890045 1.880790849211783e-38
-1.494596 -0.854055 -4.880661 1.880790849211783e-38
-1.497135 -0.840229 -4.888951 1.880790849211783e-38
-1.492037 -0.822143 -4.872305 1.880790849211783e-38
-1.490626 -0.806155 -4.867697 1.880790849211783e-38
-1.490575 -0.790917 -4.867530 1.880790849211783e-38
-1.498184 -0.779667 -4.892380 1.880790849211783e-38
-1.494732 -0.762618 -4.881105 1.880790849211783e-38
-1.489854 -0.744927 -4.865177 1.880790849211783e-38
-1.491863 -0.730708 -4.871737 1.880790849211783e-38
-1.496065 -0.717501 -4.885459 1.880790849211783e-38
-1.497156 -0.702747 -4.889020 1.880790849211783e-38
-1.494331 -0.686172 -4.879797 1.880790849211783e-38
-1.495013 -0.671230 -4.882024 1.880790849211783e-38
-1.494294 -0.655660 -4.879677 1.880790849211783e-38
-1.488755 -0.638038 -4.861588 1.880790849211783e-38
-1.487248 -0.622216 -4.856666 1.880790849211783e-38
-1.496194 -0.610692 -4.885881 1.880790849211783e-38
-1.494133 -0.594604 -4.879148 1.880790849211783e-38
-1.491674 -0.578404 -4.871119 1.880790849211783e-38
-1.492827 -0.563618 -4.874884 1.880790849211783e-38
-1.491206 -0.547790 -4.869592 1.880790849211783e-38
-1.497375 -0.534777 -4.889737 1.880790849211783e-38
-1.498477 -0.519880 -4.893334 1.880790849211783e-38
-1.500397 -0.505236 -4.899604 1.880790849211783e-38
-1.490751 -0.486776 -4.868104 1.880790849211783e-38
-1.491970 -0.471950 -4.872087 1.880790849211783e-38
-1.492733 -0.456959 -4.874577 1.880790849211783e-38
-1.493901 -0.442073 -4.878391 1.880790849211783e-38
-1.494568 -0.427019 -4.880569 1.880790849211783e-38
-1.491619 -0.410956 -4.870939 1.880790849211783e-38
-1.493793 -0.396312 -4.878040 1.880790849211783e-38
-1.492071 -0.380630 -4.872415 1.880790849211783e-38
-1.494261 -0.365941 -4.879566 1.880790849211783e-38
-1.492401 -0.350257 -4.873494 1.880790849211783e-38
-1.498070 -0.336301 -4.892006 1.880790849211783e-38
-1.495937 -0.320558 -4.885040 1.880790849211783e-38
-1.492495 -0.304591 -4.873800 1.880790849211783e-38
-1.495207 -0.289887 -4.882658 1.880790849211783e-38
-1.494320 -0.274467 -4.879760 1.880790849211783e-38
-1.494023 -0.259167 -4.878789 1.880790849211783e-38
-1.498265 -0.244615 -4.892643 1.880790849211783e-38
-1.494887 -0.228809 -4.881610 1.880790849211783e-38
-1.494549 -0.213507 -4.880507 1.880790849211783e-38
-1.495402 -0.198370 -4.883295 1.880790849211783e-38
-1.489564 -0.182396 -4.864229 1.880790849211783e-38
-1.494940 -0.167799 -4.881785 1.880790849211783e-38
-1.488401 -0.151878 -4.860431 1.880790849211783e-38
-1.497573 -0.137532 -4.890384 1.880790849211783e-38
-1.493781 -0.121941 -4.877999 1.880790849211783e-38
-1.496650 -0.106904 -4.887368 1.880790849211783e-38
-1.498701 -0.091757 -4.894067 1.880790849211783e-38
-1.494398 -0.076245 -4.880014 1.880790849211783e-38
-1.489098 -0.060780 -4.862707 1.880790849211783e-38
-1.492164 -0.045678 -4.872720 1.880790849211783e-38
-1.494551 -0.030501 -4.880513 1.880790849211783e-38
-1.494590 -0.015251 -4.880641 1.880790849211783e-38
-1.492725 0.000000 -4.874551 1.880790849211783e-38
-1.488356 0.015187 -4.860286 1.880790849211783e-38
-1.498038 0.030572 -4.891901 1.880790849211783e-38
-1.492895 0.045701 -4.875106 1.880790849211783e-38
-1.493706 0.060968 -4.877757 1.880790849211783e-38
-1.498380 0.076448 -4.893020 1.880790849211783e-38
-1.490117 0.091232 -4.866036 1.880790849211783e-38
-1.498986 0.107070 -4.894996 1.880790849211783e-38
-1.492193 0.121812 -4.872813 1.880790849211783e-38
-1.495440 0.137336 -4.883419 1.880790849211783e-38
-1.496247 0.152678 -4.886052 1.880790849211783e-38
-1.494538 0.167754 -4.880473 1.880790849211783e-38
-1.495330 0.183102 -4.883057 1.880790849211783e-38
-1.488303 0.197428 -4.860111 1.880790849211783e-38
-1.491600 0.213086 -4.870876 1.880790849211783e-38
-1.491950 0.228360 -4.872022 1.880790849211783e-38
-1.492317 0.243644 -4.873220 1.880790849211783e-38
-1.489366 0.258359 -4.863583 1.880790849211783e-38
-1.493084 0.274240 -4.875723 1.880790849211783e-38
-1.495385 0.289921 -4.883237 1.880790849211783e-38
-1.494664 0.305034 -4.880885 1.880790849211783e-38
-1.492368 0.319793 -4.873385 1.880790849211783e-38
-1.492907 0.335142 -4.875147 1.880790849211783e-38
-1.494526 0.350756 -4.880432 1.880790849211783e-38
-1.498428 0.366962 -4.893175 1.880790849211783e-38
-1.489465 0.379966 -4.863906 1.880790849211783e-38
-1.496085 0.396921 -4.885525 1.880790849211783e-38
-1.489618 0.410405 -4.864406 1.880790849211783e-38
-1.496217 0.427491 -4.885954 1.880790849211783e-38
-1.498793 0.443520 -4.894369 1.880790849211783e-38
-1.491742 0.456656 -4.871342 1.880790849211783e-38
-1.491585 0.471828 -4.870830 1.880790849211783e-38
-1.497767 0.489067 -4.891018 1.880790849211783e-38
-1.493783 0.503009 -4.878007 1.880790849211783e-38
-1.492779 0.517903 -4.874730 1.880790849211783e-38
-1.495501 0.534108 -4.883618 1.880790849211783e-38
-1.491737 0.547985 -4.871327 1.880790849211783e-38
-1.500766 0.566616 -4.900810 1.880790849211783e-38
-1.494394 0.579459 -4.880003 1.880790849211783e-38
-1.492126 0.593805 -4.872595 1.880790849211783e-38
-1.491732 0.608870 -4.871308 1.880790849211783e-38
-1.497127 0.626349 -4.888926 1.880790849211783e-38
-1.496993 0.641569 -4.888490 1.880790849211783e-38
-1.494617 0.655801 -4.880729 1.880790849211783e-38
-1.490628 0.669262 -4.867704 1.880790849211783e-38
-1.495230 0.686585 -4.882731 1.880790849211783e-38
-1.492543 0.700581 -4.873958 1.880790849211783e-38
-1.489770 0.714481 -4.864901 1.880790849211783e-38
-1.492694 0.731116 -4.874451 1.880790849211783e-38
-1.493643 0.746821 -4.877548 1.880790849211783e-38
-1.492820 0.761643 -4.874861 1.880790849211783e-38
-1.494190 0.777588 -4.879334 1.880790849211783e-38
-1.490178 0.790707 -4.866236 1.880790849211783e-38
-1.490951 0.806331 -4.868759 1.880790849211783e-38
-1.492971 0.822658 -4.875355 1.880790849211783e-38
-1.499098 0.841330 -4.895362 1.880790849211783e-38
-1.491472 0.852269 -4.870459 1.880790849211783e-38
-1.490767 0.867079 -4.868159 1.880790849211783e-38
-1.500257 0.887907 -4.899147 1.880790849211783e-38
-1.494312 0.899637 -4.879734 1.880790849211783e-38
-1.488571 0.911370 -4.860987 1.880790849211783e-38
-1.499716 0.933497 -4.897381 1.880790849211783e-38
-1.492272 0.944091 -4.873073 1.880790849211783e-38
-1.490931 0.958456 -4.868693 1.880790849211783e-38
-1.494757 0.976168 -4.881189 1.880790849211783e-38
-1.492913 0.990198 -4.875167 1.880790849211783e-38
-1.493089 1.005550 -4.875741 1.880790849211783e-38
-1.493884 1.021329 -4.878335 1.880790849211783e-38
-1.493027 1.035978 -4.875538 1.880790849211783e-38
-1.493078 1.051249 -4.875706 1.880790849211783e-38
-1.497453 1.069609 -4.889991 1.880790849211783e-38
-1.490565 1.079899 -4.867499 1.880790849211783e-38
-1.492905 1.096828 -4.875140 1.880790849211783e-38
-1.492424 1.111703 -4.873568 1.880790849211783e-38
-1.492110 1.126696 -4.872544 1.880790849211783e-38
-1.497355 1.145935 -4.889671 1.880790849211783e-38
-1.490663 1.156024 -4.867817 1.880790849211783e-38
-1.493326 1.173327 -4.876513 1.880790849211783e-38
-1.494238 1.189291 -4.879490 1.880790849211783e-38
-1.491261 1.202139 -4.869772 1.880790849211783e-38
-1.494727 1.220185 -4.881090 1.880790849211783e-38
-1.489190 1.230861 -4.863008 1.880790849211783e-38
-1.491422 1.247925 -4.870298 1.880790849211783e-38
-1.496042 1.267056 -4.885385 1.880790849211783e-38
-1.491850 1.278729 -4.871695 1.880790849211783e-38
-1.492394 1.294423 -4.873470 1.880790849211783e-38
-1.491657 1.309005 -4.871064 1.880790849211783e-38
-1.490557 1.323250 -4.867473 1.880790849211783e-38
-1.496247 1.343568 -4.886052 1.880790849211783e-38
-1.492606 1.355530 -4.874162 1.880790849211783e-38
-1.494988 1.372948 -4.881943 1.880790849211783e-38
-1.493757 1.387060 -4.877923 1.880790849211783e-38
-1.498517 1.406772 -4.893467 1.880790849211783e-38
-1.493193 1.417009 -4.876079 1.880790849211783e-38
-1.492022 1.431124 -4.872258 1.880790849211783e-38
-1.494885 1.449124 -4.881607 1.880790849211783e-38
-1.493820 1.463334 -4.878128 1.880790849211783e-38
-1.492842 1.477609 -4.874933 1.880790849211783e-38
-1.496066 1.496066 -4.885461 1.880790849211783e-38
-1.498189 1.513477 -4.892396 1.880790849211783e-38
-1.494399 1.524897 -4.880017 1.880790849211783e-38
-1.495360 1.541137 -4.883157 1.880790849211783e-38
-1.491831 1.552722 -4.871633 1.880790849211783e-38
-1.494392 1.570637 -4.879996 1.880790849211783e-38
-1.494544 1.586046 -4.880490 1.880790849211783e-38
-1.490063 1.596496 -4.865860 1.880790849211783e-38
-1.493909 1.615861 -4.878418 1.880790849211783e-38
-1.492968 1.630078 -4.875346 1.880790849211783e-38
-1.492129 1.644387 -4.872604 1.880790849211783e-38
-1.491404 1.658806 -4.870237 1.880790849211783e-38
-1.493951 1.676883 -4.878554 1.880790849211783e-38
-1.493335 1.691431 -4.876544 1.880790849211783e-38
-1.492684 1.705924 -4.874417 1.880790849211783e-38
-1.496048 1.725035 -4.885403 1.880790849211783e-38
-1.493355 1.737167 -4.876608 1.880790849211783e-38
-1.494201 1.753399 -4.879371 1.880790849211783e-38
-1.493722 1.768079 -4.877809 1.880790849211783e-38
-1.494497 1.784246 -4.880336 1.880790849211783e-38
-1.491272 1.795613 -4.869807 1.880790849211783e-38
-1.500951 1.822583 -4.901413 1.880790849211783e-38
-1.495741 1.831520 -4.884400 1.880790849211783e-38
-1.490301 1.840066 -4.866637 1.880790849211783e-38
-1.493621 1.859405 -4.877477 1.880790849211783e-38
-1.498331 1.880558 -4.892859 1.880790849211783e-38
-1.491868 1.887670 -4.871755 1.880790849211783e-38
-1.491651 1.902617 -4.871045 1.880790849211783e-38
-1.497640 1.925537 -4.890601 1.880790849211783e-38
-1.491066 1.932299 -4.869133 1.880790849211783e-38
-0.862713 -1.138425 -2.846267 4.333194603576166e-39
-0.872285 -1.142064 -2.877846 4.333194603576166e-39
-0.877579 -1.139948 -2.895312 4.333194603576166e-39
-0.887286 -1.143409 -2.927337 4.333194603576166e-39
-0.898145 -1.148144 -2.963165 4.333194603576166e-39
-0.899430 -1.140514 -2.967403 4.333194603576166e-39
-0.909308 -1.143666 -2.999993 4.333194603576166e-39
-0.915593 -1.142131 -3.020728 4.333194603576166e-39
-0.919013 -1.136923 -3.032012 4.333194603576166e-39
-0.927544 -1.137915 -3.060158 4.333194603576166e-39
